ncols 200
nrows 68
xllcorner 500000
yllcorner 5000500
cellsize 10
NODATA_value -9999
127.05 127.25 127.46 127.68 127.90 128.14 128.38 128.63 128.90 129.17 129.46 129.75 130.06 130.39 130.72 131.08 131.44 131.82 132.22 132.63 133.07 133.52 133.98 134.47 134.98 135.51 136.06 136.63 137.22 137.83 138.47 139.13 139.82 140.53 141.26 142.02 142.81 143.62 144.46 145.32 146.21 147.12 148.06 149.03 150.02 151.03 152.08 153.14 154.23 155.34 156.48 157.63 158.81 160.01 161.23 162.46 163.71 164.98 166.26 167.55 168.85 170.17 171.49 172.81 174.14 175.47 176.81 178.13 179.46 180.78 182.09 183.39 184.68 185.95 187.20 188.44 189.65 190.84 192.00 193.14 194.24 195.31 196.34 197.34 198.29 199.21 200.08 200.91 201.69 202.42 203.11 203.74 204.32 204.84 205.31 205.73 206.09 206.39 206.63 206.82 206.95 207.02 207.03 206.99 206.89 206.73 206.51 206.24 205.92 205.54 205.11 204.62 204.09 203.51 202.88 202.21 201.49 200.74 199.94 199.11 198.24 197.34 196.40 195.44 194.45 193.44 192.40 191.35 190.28 189.19 188.09 186.98 185.86 184.73 183.61 182.47 181.34 180.21 179.09 177.97 176.85 175.75 174.66 173.58 172.51 171.46 170.43 169.41 168.41 167.43 166.48 165.54 164.63 163.74 162.88 162.03 161.22 160.43 159.66 158.92 158.21 157.52 156.86 156.22 155.61 155.02 154.46 153.93 153.42 152.93 152.47 152.03 151.62 151.23 150.86 150.51 150.18 149.87 149.58 149.32 149.07 148.83 148.62 148.42 148.24 148.08 147.92 147.79 147.66 147.55 147.46 147.37 147.30 147.23 147.18 147.14 147.10 147.08 147.06 147.05
127.02 127.22 127.43 127.65 127.88 128.11 128.36 128.61 128.88 129.15 129.44 129.74 130.05 130.38 130.72 131.08 131.45 131.83 132.23 132.65 133.09 133.54 134.02 134.51 135.02 135.55 136.11 136.69 137.29 137.91 138.55 139.22 139.92 140.63 141.38 142.15 142.94 143.76 144.61 145.48 146.38 147.30 148.26 149.23 150.24 151.26 152.32 153.40 154.50 155.63 156.77 157.95 159.14 160.35 161.58 162.83 164.10 165.38 166.68 167.99 169.31 170.63 171.97 173.31 174.66 176.01 177.36 178.70 180.05 181.38 182.71 184.02 185.33 186.62 187.89 189.14 190.36 191.57 192.74 193.89 195.01 196.09 197.14 198.14 199.11 200.04 200.92 201.76 202.55 203.29 203.98 204.62 205.20 205.74 206.21 206.63 206.99 207.30 207.55 207.73 207.86 207.93 207.95 207.90 207.79 207.63 207.41 207.14 206.80 206.42 205.98 205.49 204.95 204.36 203.72 203.04 202.31 201.54 200.74 199.89 199.01 198.09 197.14 196.17 195.16 194.14 193.09 192.02 190.93 189.82 188.71 187.58 186.45 185.30 184.16 183.01 181.86 180.71 179.57 178.43 177.31 176.19 175.08 173.98 172.90 171.83 170.78 169.75 168.74 167.75 166.77 165.83 164.90 164.00 163.12 162.26 161.44 160.63 159.86 159.10 158.38 157.68 157.01 156.36 155.74 155.15 154.58 154.03 153.52 153.02 152.55 152.11 151.69 151.29 150.91 150.55 150.22 149.91 149.62 149.34 149.09 148.85 148.63 148.43 148.25 148.08 147.92 147.78 147.65 147.54 147.44 147.35 147.28 147.21 147.16 147.11 147.08 147.05 147.03 147.02
126.98 127.19 127.40 127.62 127.85 128.08 128.33 128.59 128.86 129.13 129.43 129.73 130.04 130.37 130.72 131.07 131.45 131.84 132.24 132.66 133.10 133.56 134.04 134.54 135.06 135.60 136.16 136.74 137.35 137.97 138.63 139.30 140.00 140.73 141.48 142.26 143.06 143.89 144.75 145.63 146.54 147.48 148.44 149.43 150.44 151.48 152.55 153.64 154.75 155.89 157.06 158.24 159.45 160.67 161.92 163.18 164.46 165.76 167.07 168.40 169.73 171.08 172.43 173.79 175.15 176.51 177.88 179.24 180.60 181.95 183.29 184.63 185.94 187.25 188.53 189.80 191.04 192.26 193.45 194.61 195.74 196.83 197.89 198.91 199.89 200.83 201.72 202.57 203.36 204.11 204.81 205.46 206.05 206.59 207.07 207.49 207.86 208.16 208.41 208.60 208.73 208.80 208.81 208.76 208.66 208.49 208.27 207.99 207.65 207.26 206.81 206.31 205.76 205.17 204.52 203.83 203.09 202.31 201.49 200.63 199.74 198.81 197.85 196.86 195.84 194.80 193.73 192.65 191.54 190.43 189.29 188.15 187.00 185.84 184.68 183.51 182.35 181.19 180.03 178.88 177.73 176.60 175.47 174.36 173.26 172.18 171.12 170.07 169.05 168.04 167.06 166.09 165.15 164.24 163.35 162.48 161.64 160.83 160.04 159.28 158.54 157.83 157.15 156.49 155.86 155.26 154.68 154.13 153.60 153.10 152.63 152.17 151.75 151.34 150.96 150.60 150.26 149.94 149.64 149.36 149.10 148.86 148.64 148.44 148.25 148.07 147.92 147.77 147.64 147.53 147.43 147.33 147.26 147.19 147.13 147.08 147.05 147.02 147.00 146.99
126.95 127.15 127.37 127.59 127.82 128.06 128.30 128.56 128.83 129.11 129.41 129.71 130.03 130.36 130.71 131.07 131.45 131.84 132.25 132.67 133.12 133.58 134.06 134.57 135.09 135.63 136.20 136.79 137.40 138.04 138.69 139.38 140.09 140.82 141.58 142.36 143.18 144.01 144.88 145.77 146.69 147.64 148.61 149.61 150.63 151.68 152.76 153.86 154.99 156.14 157.32 158.52 159.74 160.98 162.24 163.51 164.81 166.12 167.45 168.78 170.13 171.49 172.86 174.24 175.61 176.99 178.37 179.75 181.12 182.49 183.85 185.19 186.53 187.84 189.14 190.42 191.68 192.91 194.11 195.28 196.43 197.53 198.60 199.63 200.62 201.57 202.47 203.33 204.13 204.89 205.60 206.25 206.85 207.39 207.87 208.30 208.67 208.98 209.23 209.42 209.55 209.62 209.63 209.58 209.47 209.30 209.07 208.79 208.45 208.05 207.60 207.09 206.53 205.93 205.27 204.57 203.82 203.03 202.20 201.33 200.43 199.48 198.51 197.51 196.48 195.42 194.34 193.24 192.13 190.99 189.85 188.69 187.52 186.35 185.17 183.99 182.81 181.64 180.46 179.29 178.13 176.98 175.85 174.72 173.61 172.51 171.44 170.38 169.34 168.32 167.32 166.34 165.39 164.46 163.56 162.68 161.83 161.01 160.21 159.44 158.69 157.97 157.28 156.61 155.98 155.36 154.78 154.22 153.69 153.18 152.69 152.24 151.80 151.39 151.00 150.63 150.29 149.97 149.66 149.38 149.12 148.87 148.65 148.44 148.25 148.07 147.91 147.76 147.63 147.51 147.41 147.31 147.23 147.16 147.10 147.06 147.02 146.99 146.97 146.95
126.91 127.12 127.33 127.55 127.79 128.03 128.28 128.54 128.81 129.09 129.39 129.69 130.02 130.35 130.70 131.06 131.44 131.84 132.25 132.68 133.13 133.60 134.08 134.59 135.12 135.67 136.24 136.83 137.45 138.09 138.76 139.45 140.16 140.90 141.67 142.46 143.28 144.13 145.00 145.90 146.83 147.78 148.77 149.77 150.81 151.87 152.96 154.07 155.21 156.38 157.56 158.77 160.01 161.26 162.53 163.82 165.13 166.46 167.79 169.15 170.51 171.88 173.27 174.65 176.04 177.44 178.83 180.22 181.61 182.99 184.36 185.72 187.07 188.40 189.71 191.01 192.27 193.52 194.73 195.92 197.07 198.19 199.27 200.31 201.31 202.27 203.18 204.04 204.86 205.62 206.33 206.99 207.59 208.14 208.63 209.06 209.43 209.74 210.00 210.19 210.32 210.39 210.40 210.34 210.23 210.06 209.83 209.54 209.19 208.79 208.33 207.82 207.26 206.64 205.98 205.27 204.51 203.71 202.87 201.99 201.07 200.12 199.13 198.12 197.07 196.01 194.91 193.80 192.67 191.52 190.36 189.19 188.01 186.82 185.63 184.44 183.24 182.05 180.87 179.68 178.51 177.35 176.19 175.06 173.93 172.82 171.73 170.66 169.61 168.57 167.56 166.58 165.61 164.67 163.76 162.87 162.01 161.17 160.37 159.58 158.83 158.10 157.40 156.73 156.08 155.46 154.87 154.30 153.76 153.25 152.76 152.29 151.85 151.43 151.04 150.67 150.32 149.99 149.68 149.40 149.13 148.88 148.65 148.44 148.24 148.06 147.90 147.75 147.62 147.49 147.39 147.29 147.21 147.14 147.08 147.03 146.99 146.95 146.93 146.92
126.87 127.08 127.30 127.52 127.75 128.00 128.25 128.51 128.78 129.07 129.37 129.67 130.00 130.33 130.69 131.05 131.43 131.83 132.25 132.68 133.13 133.61 134.10 134.61 135.14 135.69 136.27 136.87 137.49 138.14 138.81 139.50 140.23 140.97 141.75 142.55 143.37 144.23 145.11 146.02 146.95 147.92 148.91 149.93 150.97 152.05 153.14 154.27 155.42 156.59 157.79 159.01 160.25 161.52 162.80 164.11 165.43 166.77 168.12 169.48 170.86 172.25 173.64 175.04 176.45 177.85 179.26 180.66 182.06 183.46 184.84 186.22 187.58 188.92 190.24 191.55 192.83 194.08 195.31 196.51 197.67 198.80 199.89 200.94 201.95 202.91 203.83 204.71 205.53 206.30 207.02 207.68 208.29 208.84 209.33 209.77 210.14 210.46 210.71 210.90 211.03 211.10 211.11 211.06 210.94 210.77 210.53 210.24 209.89 209.48 209.02 208.50 207.93 207.31 206.63 205.91 205.15 204.34 203.49 202.60 201.67 200.71 199.71 198.68 197.63 196.55 195.44 194.32 193.18 192.02 190.84 189.66 188.46 187.26 186.06 184.85 183.65 182.44 181.24 180.05 178.86 177.68 176.52 175.37 174.23 173.11 172.00 170.92 169.85 168.81 167.79 166.79 165.82 164.87 163.94 163.05 162.17 161.33 160.51 159.72 158.95 158.22 157.51 156.83 156.17 155.55 154.95 154.37 153.83 153.30 152.81 152.34 151.89 151.47 151.07 150.69 150.34 150.01 149.70 149.41 149.13 148.88 148.65 148.43 148.23 148.05 147.89 147.73 147.60 147.47 147.37 147.27 147.18 147.11 147.05 147.00 146.95 146.92 146.90 146.88
126.84 127.04 127.26 127.49 127.72 127.96 128.22 128.48 128.76 129.04 129.34 129.65 129.98 130.32 130.67 131.04 131.42 131.83 132.24 132.68 133.14 133.61 134.11 134.62 135.16 135.72 136.30 136.90 137.53 138.18 138.86 139.56 140.28 141.04 141.82 142.62 143.46 144.32 145.21 146.12 147.07 148.04 149.04 150.07 151.12 152.20 153.31 154.44 155.60 156.79 158.00 159.23 160.48 161.76 163.05 164.37 165.70 167.05 168.41 169.79 171.18 172.58 173.99 175.40 176.82 178.23 179.65 181.07 182.48 183.89 185.29 186.67 188.04 189.40 190.73 192.05 193.34 194.61 195.85 197.05 198.22 199.36 200.46 201.52 202.54 203.51 204.44 205.32 206.15 206.93 207.65 208.32 208.93 209.49 209.98 210.42 210.80 211.12 211.37 211.56 211.69 211.76 211.77 211.72 211.60 211.42 211.18 210.89 210.53 210.12 209.65 209.13 208.55 207.92 207.24 206.51 205.74 204.92 204.06 203.16 202.22 201.25 200.25 199.21 198.14 197.05 195.93 194.80 193.64 192.47 191.29 190.09 188.88 187.67 186.45 185.23 184.02 182.80 181.59 180.38 179.18 177.99 176.81 175.65 174.50 173.37 172.25 171.16 170.08 169.03 168.00 166.99 166.00 165.04 164.11 163.20 162.32 161.47 160.64 159.84 159.07 158.32 157.61 156.92 156.26 155.62 155.02 154.44 153.88 153.36 152.86 152.38 151.93 151.50 151.10 150.72 150.36 150.02 149.71 149.41 149.14 148.88 148.64 148.43 148.22 148.04 147.87 147.72 147.58 147.45 147.34 147.24 147.16 147.08 147.02 146.96 146.92 146.89 146.86 146.84
126.80 127.01 127.22 127.45 127.69 127.93 128.18 128.45 128.73 129.01 129.32 129.63 129.96 130.30 130.65 131.02 131.41 131.82 132.24 132.68 133.13 133.61 134.11 134.63 135.17 135.73 136.32 136.92 137.56 138.21 138.89 139.60 140.33 141.09 141.88 142.69 143.53 144.40 145.29 146.22 147.17 148.15 149.16 150.19 151.25 152.34 153.46 154.60 155.77 156.96 158.18 159.42 160.69 161.97 163.28 164.61 165.95 167.31 168.68 170.07 171.47 172.88 174.30 175.72 177.15 178.58 180.01 181.44 182.86 184.28 185.69 187.09 188.47 189.83 191.18 192.51 193.81 195.09 196.33 197.55 198.73 199.88 200.99 202.06 203.08 204.06 205.00 205.88 206.72 207.50 208.23 208.90 209.52 210.08 210.58 211.02 211.40 211.72 211.98 212.17 212.30 212.37 212.38 212.32 212.20 212.02 211.78 211.48 211.12 210.70 210.23 209.70 209.12 208.48 207.80 207.06 206.28 205.46 204.59 203.68 202.73 201.75 200.73 199.69 198.61 197.51 196.38 195.23 194.07 192.89 191.69 190.48 189.26 188.04 186.81 185.58 184.35 183.12 181.90 180.68 179.47 178.27 177.08 175.91 174.75 173.61 172.48 171.37 170.29 169.22 168.18 167.16 166.17 165.20 164.26 163.34 162.45 161.59 160.76 159.95 159.17 158.42 157.69 157.00 156.33 155.69 155.08 154.49 153.93 153.40 152.89 152.41 151.96 151.52 151.12 150.73 150.37 150.03 149.71 149.41 149.13 148.88 148.64 148.42 148.21 148.02 147.85 147.70 147.56 147.43 147.32 147.21 147.13 147.05 146.98 146.93 146.89 146.85 146.82 146.81
126.76 126.97 127.19 127.41 127.65 127.90 128.15 128.42 128.70 128.99 129.29 129.60 129.93 130.27 130.63 131.01 131.39 131.80 132.23 132.67 133.13 133.61 134.11 134.63 135.18 135.74 136.33 136.94 137.58 138.24 138.92 139.64 140.37 141.14 141.93 142.75 143.59 144.47 145.37 146.30 147.26 148.24 149.26 150.30 151.37 152.47 153.59 154.74 155.92 157.12 158.35 159.60 160.87 162.17 163.48 164.82 166.17 167.54 168.92 170.32 171.73 173.15 174.58 176.01 177.45 178.89 180.34 181.77 183.21 184.64 186.05 187.46 188.85 190.23 191.59 192.92 194.23 195.52 196.77 198.00 199.19 200.34 201.46 202.54 203.57 204.56 205.50 206.39 207.23 208.02 208.75 209.43 210.05 210.62 211.12 211.56 211.94 212.26 212.52 212.72 212.85 212.92 212.92 212.86 212.74 212.56 212.32 212.02 211.65 211.23 210.75 210.22 209.63 208.99 208.30 207.56 206.77 205.94 205.06 204.14 203.19 202.20 201.17 200.12 199.03 197.92 196.79 195.63 194.45 193.26 192.05 190.84 189.61 188.37 187.14 185.89 184.65 183.41 182.18 180.95 179.73 178.52 177.32 176.14 174.97 173.82 172.68 171.57 170.47 169.40 168.35 167.32 166.32 165.34 164.39 163.47 162.57 161.70 160.86 160.04 159.26 158.50 157.77 157.07 156.39 155.75 155.13 154.54 153.97 153.44 152.92 152.44 151.98 151.54 151.13 150.74 150.38 150.03 149.71 149.41 149.13 148.87 148.63 148.40 148.19 148.01 147.83 147.67 147.53 147.40 147.29 147.19 147.10 147.02 146.95 146.90 146.85 146.81 146.79 146.77
126.72 126.93 127.15 127.37 127.61 127.86 128.12 128.38 128.66 128.95 129.26 129.57 129.90 130.25 130.61 130.98 131.37 131.78 132.21 132.65 133.12 133.60 134.11 134.63 135.18 135.75 136.34 136.95 137.59 138.26 138.95 139.66 140.41 141.17 141.97 142.79 143.64 144.52 145.43 146.37 147.33 148.32 149.34 150.39 151.47 152.57 153.71 154.86 156.05 157.26 158.49 159.75 161.03 162.34 163.66 165.00 166.36 167.74 169.14 170.54 171.96 173.39 174.83 176.27 177.72 179.17 180.62 182.07 183.51 184.95 186.38 187.79 189.19 190.58 191.94 193.29 194.61 195.90 197.17 198.40 199.60 200.76 201.88 202.97 204.00 205.00 205.95 206.84 207.69 208.48 209.22 209.90 210.53 211.09 211.60 212.05 212.43 212.75 213.01 213.21 213.34 213.41 213.41 213.35 213.23 213.05 212.80 212.49 212.13 211.70 211.22 210.68 210.09 209.44 208.75 208.00 207.20 206.37 205.48 204.56 203.60 202.60 201.57 200.50 199.41 198.29 197.14 195.98 194.79 193.59 192.38 191.15 189.91 188.67 187.42 186.17 184.92 183.67 182.43 181.19 179.96 178.74 177.54 176.34 175.16 174.00 172.86 171.74 170.63 169.55 168.49 167.46 166.45 165.46 164.51 163.57 162.67 161.79 160.94 160.12 159.33 158.57 157.83 157.12 156.44 155.79 155.17 154.57 154.01 153.46 152.95 152.46 151.99 151.55 151.14 150.75 150.38 150.03 149.71 149.40 149.12 148.85 148.61 148.38 148.17 147.98 147.81 147.65 147.50 147.37 147.26 147.15 147.06 146.98 146.92 146.86 146.81 146.77 146.75 146.73
126.67 126.89 127.11 127.33 127.57 127.82 128.08 128.35 128.63 128.92 129.22 129.54 129.87 130.22 130.58 130.96 131.35 131.76 132.19 132.64 133.10 133.59 134.10 134.62 135.17 135.74 136.34 136.96 137.60 138.27 138.96 139.68 140.43 141.20 142.00 142.83 143.68 144.57 145.48 146.42 147.39 148.39 149.42 150.47 151.55 152.66 153.80 154.97 156.16 157.37 158.61 159.88 161.17 162.48 163.81 165.16 166.53 167.92 169.32 170.73 172.16 173.60 175.04 176.50 177.95 179.41 180.87 182.33 183.78 185.22 186.66 188.08 189.49 190.88 192.26 193.61 194.94 196.24 197.51 198.75 199.95 201.12 202.25 203.34 204.39 205.39 206.34 207.24 208.09 208.89 209.63 210.32 210.94 211.51 212.02 212.47 212.86 213.18 213.44 213.63 213.77 213.83 213.84 213.78 213.66 213.47 213.22 212.91 212.54 212.12 211.63 211.09 210.49 209.84 209.14 208.39 207.59 206.74 205.85 204.92 203.95 202.95 201.91 200.84 199.74 198.61 197.46 196.28 195.09 193.88 192.66 191.42 190.18 188.93 187.67 186.41 185.15 183.90 182.64 181.40 180.16 178.93 177.72 176.52 175.33 174.16 173.01 171.88 170.77 169.68 168.61 167.57 166.56 165.57 164.60 163.66 162.75 161.87 161.02 160.19 159.39 158.62 157.88 157.17 156.48 155.83 155.20 154.60 154.03 153.48 152.96 152.47 152.00 151.56 151.14 150.74 150.37 150.02 149.70 149.39 149.10 148.84 148.59 148.36 148.15 147.96 147.78 147.62 147.47 147.34 147.22 147.12 147.03 146.95 146.88 146.82 146.77 146.73 146.71 146.69
126.63 126.84 127.06 127.29 127.53 127.78 128.04 128.31 128.59 128.88 129.19 129.51 129.84 130.19 130.55 130.93 131.33 131.74 132.17 132.62 133.08 133.57 134.08 134.61 135.16 135.74 136.33 136.96 137.60 138.27 138.97 139.69 140.44 141.22 142.02 142.85 143.71 144.60 145.52 146.46 147.44 148.44 149.47 150.53 151.62 152.73 153.88 155.05 156.25 157.47 158.72 159.99 161.28 162.60 163.94 165.29 166.67 168.06 169.47 170.89 172.33 173.77 175.23 176.69 178.15 179.61 181.08 182.54 184.00 185.45 186.90 188.33 189.74 191.14 192.52 193.88 195.22 196.52 197.80 199.05 200.26 201.43 202.57 203.66 204.71 205.72 206.67 207.58 208.43 209.23 209.98 210.67 211.30 211.87 212.38 212.83 213.22 213.54 213.80 214.00 214.13 214.20 214.20 214.14 214.02 213.83 213.58 213.27 212.90 212.47 211.98 211.43 210.83 210.18 209.47 208.72 207.91 207.06 206.17 205.23 204.26 203.25 202.20 201.12 200.02 198.88 197.72 196.54 195.34 194.13 192.90 191.65 190.40 189.14 187.88 186.61 185.35 184.09 182.83 181.57 180.33 179.09 177.87 176.66 175.47 174.29 173.14 172.00 170.88 169.79 168.72 167.67 166.65 165.65 164.68 163.73 162.82 161.93 161.07 160.24 159.44 158.66 157.92 157.20 156.51 155.85 155.22 154.62 154.04 153.49 152.97 152.47 152.00 151.56 151.13 150.74 150.36 150.01 149.68 149.37 149.08 148.82 148.57 148.34 148.13 147.93 147.75 147.59 147.44 147.31 147.19 147.08 146.99 146.91 146.84 146.78 146.73 146.69 146.66 146.64
126.59 126.80 127.02 127.25 127.49 127.74 128.00 128.27 128.55 128.85 129.15 129.47 129.81 130.16 130.52 130.90 131.30 131.71 132.14 132.59 133.06 133.55 134.06 134.59 135.15 135.72 136.32 136.95 137.59 138.27 138.97 139.69 140.44 141.22 142.03 142.87 143.73 144.62 145.54 146.49 147.47 148.48 149.51 150.57 151.67 152.79 153.94 155.11 156.31 157.54 158.79 160.07 161.37 162.69 164.04 165.40 166.78 168.18 169.59 171.02 172.46 173.91 175.37 176.84 178.31 179.78 181.25 182.72 184.19 185.64 187.09 188.53 189.95 191.36 192.74 194.11 195.45 196.76 198.04 199.29 200.51 201.69 202.83 203.93 204.98 205.99 206.95 207.86 208.72 209.52 210.27 210.96 211.60 212.17 212.68 213.13 213.52 213.85 214.11 214.31 214.44 214.51 214.51 214.45 214.32 214.13 213.88 213.57 213.20 212.76 212.27 211.72 211.12 210.46 209.75 208.99 208.18 207.33 206.43 205.49 204.51 203.49 202.44 201.36 200.25 199.11 197.94 196.76 195.55 194.33 193.09 191.84 190.59 189.32 188.05 186.78 185.51 184.24 182.97 181.71 180.46 179.22 177.99 176.78 175.58 174.40 173.24 172.09 170.97 169.87 168.79 167.74 166.71 165.71 164.74 163.79 162.87 161.97 161.11 160.28 159.47 158.69 157.94 157.22 156.53 155.87 155.23 154.62 154.04 153.49 152.97 152.47 151.99 151.55 151.12 150.72 150.35 149.99 149.66 149.35 149.06 148.79 148.54 148.31 148.10 147.90 147.72 147.56 147.41 147.27 147.15 147.05 146.95 146.87 146.80 146.74 146.69 146.65 146.62 146.60
126.54 126.76 126.98 127.21 127.45 127.70 127.96 128.23 128.51 128.81 129.11 129.43 129.77 130.12 130.48 130.86 131.26 131.68 132.11 132.56 133.03 133.52 134.03 134.57 135.12 135.70 136.30 136.93 137.58 138.25 138.96 139.68 140.44 141.22 142.03 142.87 143.73 144.63 145.55 146.50 147.49 148.50 149.53 150.60 151.70 152.82 153.97 155.15 156.36 157.59 158.85 160.13 161.43 162.76 164.11 165.48 166.86 168.27 169.69 171.12 172.56 174.02 175.48 176.95 178.43 179.91 181.38 182.86 184.33 185.79 187.24 188.69 190.11 191.52 192.91 194.28 195.63 196.94 198.23 199.49 200.71 201.89 203.03 204.14 205.19 206.21 207.17 208.08 208.94 209.75 210.50 211.19 211.83 212.41 212.92 213.37 213.76 214.09 214.35 214.55 214.68 214.75 214.75 214.69 214.56 214.37 214.12 213.81 213.43 212.99 212.50 211.95 211.34 210.68 209.97 209.21 208.39 207.54 206.63 205.69 204.71 203.69 202.63 201.54 200.43 199.28 198.11 196.92 195.71 194.49 193.24 191.99 190.73 189.46 188.18 186.91 185.63 184.35 183.08 181.82 180.56 179.32 178.09 176.87 175.66 174.48 173.31 172.16 171.03 169.93 168.85 167.79 166.76 165.75 164.77 163.82 162.90 162.00 161.13 160.30 159.49 158.70 157.95 157.23 156.53 155.87 155.23 154.62 154.04 153.48 152.96 152.45 151.98 151.53 151.10 150.70 150.32 149.97 149.63 149.32 149.03 148.76 148.51 148.28 148.06 147.86 147.68 147.52 147.37 147.23 147.11 147.01 146.91 146.83 146.76 146.70 146.65 146.61 146.58 146.56
126.50 126.71 126.93 127.16 127.40 127.65 127.91 128.19 128.47 128.76 129.07 129.39 129.73 130.08 130.44 130.83 131.22 131.64 132.07 132.53 133.00 133.49 134.00 134.54 135.09 135.67 136.28 136.90 137.56 138.23 138.94 139.67 140.42 141.21 142.02 142.86 143.73 144.62 145.55 146.50 147.49 148.50 149.54 150.61 151.71 152.84 153.99 155.18 156.38 157.62 158.88 160.16 161.47 162.80 164.16 165.53 166.92 168.32 169.75 171.18 172.63 174.09 175.56 177.03 178.51 179.99 181.48 182.95 184.43 185.89 187.35 188.80 190.23 191.64 193.04 194.41 195.76 197.08 198.37 199.63 200.85 202.04 203.18 204.29 205.35 206.36 207.33 208.24 209.11 209.92 210.67 211.36 212.00 212.58 213.09 213.55 213.94 214.26 214.53 214.72 214.86 214.92 214.93 214.86 214.74 214.55 214.29 213.98 213.60 213.16 212.67 212.12 211.51 210.84 210.13 209.36 208.55 207.69 206.78 205.84 204.85 203.83 202.77 201.68 200.56 199.41 198.24 197.04 195.83 194.60 193.35 192.09 190.83 189.55 188.28 186.99 185.71 184.43 183.16 181.89 180.63 179.38 178.15 176.92 175.72 174.53 173.36 172.20 171.07 169.96 168.88 167.82 166.78 165.78 164.79 163.84 162.91 162.01 161.14 160.30 159.49 158.70 157.95 157.22 156.53 155.86 155.22 154.61 154.02 153.47 152.94 152.43 151.96 151.50 151.08 150.67 150.29 149.94 149.60 149.29 149.00 148.73 148.47 148.24 148.02 147.83 147.64 147.48 147.33 147.19 147.07 146.96 146.87 146.79 146.71 146.65 146.60 146.56 146.53 146.51
126.45 126.66 126.88 127.12 127.36 127.61 127.87 128.14 128.42 128.72 129.03 129.35 129.69 130.04 130.40 130.78 131.18 131.60 132.03 132.49 132.96 133.45 133.97 134.50 135.06 135.64 136.24 136.87 137.53 138.20 138.91 139.64 140.40 141.18 142.00 142.84 143.71 144.61 145.53 146.49 147.48 148.49 149.53 150.61 151.71 152.84 153.99 155.18 156.39 157.63 158.89 160.18 161.49 162.82 164.17 165.55 166.94 168.35 169.78 171.22 172.67 174.13 175.60 177.08 178.56 180.04 181.53 183.01 184.49 185.95 187.42 188.86 190.30 191.71 193.11 194.49 195.84 197.16 198.45 199.71 200.94 202.13 203.28 204.38 205.45 206.46 207.43 208.35 209.21 210.02 210.78 211.47 212.11 212.69 213.20 213.66 214.05 214.38 214.64 214.84 214.97 215.04 215.04 214.98 214.85 214.66 214.40 214.09 213.71 213.27 212.78 212.22 211.61 210.95 210.23 209.46 208.65 207.78 206.88 205.93 204.94 203.91 202.85 201.76 200.64 199.49 198.31 197.11 195.90 194.66 193.42 192.15 190.89 189.61 188.33 187.04 185.76 184.48 183.20 181.93 180.67 179.42 178.18 176.95 175.74 174.55 173.37 172.22 171.09 169.98 168.89 167.83 166.79 165.78 164.79 163.84 162.91 162.01 161.13 160.29 159.48 158.69 157.93 157.21 156.51 155.84 155.20 154.58 154.00 153.44 152.91 152.40 151.93 151.47 151.04 150.64 150.26 149.90 149.57 149.25 148.96 148.69 148.43 148.20 147.98 147.78 147.60 147.44 147.29 147.15 147.03 146.92 146.82 146.74 146.67 146.61 146.56 146.52 146.48 146.46
126.40 126.61 126.84 127.07 127.31 127.56 127.82 128.09 128.38 128.67 128.98 129.30 129.64 129.99 130.36 130.74 131.14 131.56 131.99 132.44 132.92 133.41 133.92 134.46 135.02 135.60 136.21 136.83 137.49 138.17 138.87 139.60 140.36 141.15 141.96 142.81 143.68 144.58 145.50 146.46 147.45 148.46 149.51 150.58 151.68 152.81 153.97 155.16 156.37 157.61 158.87 160.16 161.47 162.81 164.17 165.54 166.94 168.35 169.77 171.22 172.67 174.13 175.61 177.08 178.57 180.05 181.54 183.02 184.50 185.97 187.43 188.88 190.32 191.74 193.14 194.51 195.86 197.19 198.48 199.74 200.97 202.16 203.31 204.42 205.48 206.50 207.47 208.39 209.25 210.06 210.82 211.52 212.16 212.73 213.25 213.71 214.10 214.42 214.69 214.88 215.02 215.08 215.09 215.02 214.90 214.71 214.45 214.13 213.76 213.32 212.82 212.26 211.65 210.99 210.27 209.50 208.68 207.82 206.91 205.96 204.97 203.94 202.88 201.79 200.66 199.51 198.34 197.14 195.92 194.68 193.43 192.17 190.90 189.62 188.34 187.05 185.77 184.48 183.21 181.93 180.67 179.42 178.17 176.95 175.74 174.54 173.37 172.21 171.07 169.96 168.87 167.81 166.77 165.76 164.77 163.81 162.88 161.98 161.11 160.26 159.45 158.66 157.90 157.18 156.48 155.81 155.16 154.55 153.96 153.40 152.87 152.37 151.89 151.43 151.01 150.60 150.22 149.86 149.52 149.21 148.92 148.64 148.39 148.16 147.94 147.74 147.56 147.39 147.24 147.10 146.98 146.87 146.78 146.69 146.62 146.56 146.51 146.47 146.44 146.41
126.35 126.56 126.79 127.02 127.26 127.51 127.77 128.04 128.33 128.62 128.93 129.25 129.59 129.94 130.31 130.69 131.09 131.51 131.94 132.40 132.87 133.36 133.88 134.41 134.97 135.55 136.16 136.79 137.44 138.12 138.83 139.56 140.32 141.10 141.92 142.76 143.63 144.53 145.46 146.42 147.41 148.42 149.47 150.54 151.64 152.77 153.93 155.12 156.33 157.57 158.84 160.12 161.44 162.77 164.13 165.51 166.90 168.31 169.74 171.18 172.64 174.10 175.57 177.05 178.54 180.02 181.51 182.99 184.47 185.94 187.41 188.86 190.29 191.71 193.11 194.49 195.84 197.16 198.46 199.72 200.95 202.14 203.29 204.40 205.46 206.48 207.45 208.37 209.23 210.04 210.80 211.50 212.14 212.72 213.23 213.69 214.08 214.41 214.67 214.87 215.00 215.07 215.07 215.01 214.88 214.69 214.43 214.12 213.74 213.30 212.80 212.24 211.63 210.97 210.25 209.48 208.66 207.80 206.89 205.94 204.95 203.92 202.86 201.76 200.64 199.49 198.31 197.11 195.89 194.66 193.41 192.14 190.87 189.59 188.31 187.02 185.74 184.45 183.17 181.90 180.64 179.38 178.14 176.91 175.70 174.51 173.33 172.17 171.04 169.92 168.84 167.77 166.73 165.72 164.73 163.77 162.84 161.94 161.07 160.22 159.41 158.62 157.86 157.13 156.43 155.76 155.12 154.50 153.92 153.36 152.83 152.32 151.84 151.39 150.96 150.55 150.17 149.81 149.48 149.16 148.87 148.60 148.34 148.11 147.89 147.69 147.51 147.34 147.19 147.05 146.93 146.82 146.73 146.64 146.57 146.51 146.46 146.42 146.39 146.36
126.30 126.51 126.74 126.97 127.21 127.46 127.72 127.99 128.28 128.57 128.88 129.20 129.54 129.89 130.26 130.64 131.04 131.46 131.89 132.34 132.82 133.31 133.82 134.36 134.92 135.50 136.11 136.73 137.39 138.07 138.77 139.50 140.26 141.05 141.86 142.71 143.58 144.48 145.40 146.36 147.35 148.36 149.41 150.48 151.58 152.71 153.87 155.06 156.27 157.51 158.77 160.06 161.37 162.71 164.07 165.44 166.84 168.25 169.67 171.12 172.57 174.03 175.51 176.98 178.47 179.95 181.44 182.92 184.40 185.87 187.33 188.78 190.22 191.64 193.04 194.41 195.76 197.09 198.38 199.64 200.87 202.06 203.21 204.32 205.38 206.40 207.37 208.29 209.15 209.96 210.72 211.42 212.06 212.63 213.15 213.61 214.00 214.32 214.59 214.78 214.92 214.98 214.99 214.92 214.80 214.61 214.35 214.03 213.66 213.22 212.72 212.16 211.55 210.89 210.17 209.40 208.58 207.72 206.81 205.86 204.87 203.84 202.78 201.69 200.56 199.41 198.24 197.04 195.82 194.58 193.33 192.07 190.80 189.52 188.24 186.95 185.67 184.38 183.11 181.83 180.57 179.32 178.07 176.85 175.64 174.44 173.27 172.11 170.97 169.86 168.77 167.71 166.67 165.66 164.67 163.71 162.78 161.88 161.01 160.16 159.35 158.56 157.80 157.08 156.38 155.71 155.06 154.45 153.86 153.30 152.77 152.27 151.79 151.33 150.91 150.50 150.12 149.76 149.42 149.11 148.82 148.54 148.29 148.06 147.84 147.64 147.46 147.29 147.14 147.00 146.88 146.77 146.68 146.59 146.52 146.46 146.41 146.37 146.34 146.31
126.25 126.46 126.68 126.92 127.16 127.41 127.67 127.94 128.22 128.52 128.83 129.15 129.49 129.84 130.20 130.58 130.98 131.40 131.83 132.29 132.76 133.25 133.77 134.30 134.86 135.44 136.04 136.67 137.33 138.00 138.71 139.44 140.20 140.98 141.80 142.64 143.51 144.41 145.33 146.29 147.28 148.29 149.33 150.41 151.51 152.64 153.79 154.98 156.19 157.43 158.69 159.98 161.29 162.62 163.97 165.35 166.74 168.15 169.58 171.02 172.47 173.93 175.40 176.88 178.36 179.84 181.33 182.81 184.29 185.75 187.22 188.66 190.10 191.51 192.91 194.29 195.64 196.96 198.25 199.51 200.74 201.93 203.08 204.18 205.25 206.26 207.23 208.15 209.01 209.82 210.58 211.27 211.91 212.49 213.00 213.46 213.85 214.18 214.44 214.64 214.77 214.84 214.84 214.78 214.65 214.46 214.20 213.89 213.51 213.07 212.58 212.02 211.41 210.75 210.03 209.26 208.45 207.58 206.68 205.73 204.74 203.71 202.65 201.56 200.44 199.29 198.11 196.91 195.70 194.46 193.22 191.95 190.69 189.41 188.13 186.84 185.56 184.28 183.00 181.73 180.47 179.22 177.98 176.75 175.54 174.35 173.17 172.02 170.89 169.78 168.69 167.63 166.59 165.58 164.59 163.64 162.71 161.81 160.93 160.09 159.28 158.49 157.73 157.01 156.31 155.64 155.00 154.38 153.80 153.24 152.71 152.20 151.73 151.27 150.84 150.44 150.06 149.70 149.37 149.05 148.76 148.49 148.23 148.00 147.78 147.58 147.40 147.24 147.09 146.95 146.83 146.72 146.62 146.54 146.47 146.41 146.36 146.32 146.28 146.26
126.20 126.41 126.63 126.86 127.10 127.35 127.61 127.89 128.17 128.46 128.77 129.09 129.43 129.78 130.14 130.53 130.92 131.34 131.77 132.23 132.70 133.19 133.70 134.24 134.79 135.37 135.98 136.60 137.26 137.93 138.64 139.37 140.12 140.91 141.72 142.56 143.43 144.32 145.25 146.20 147.19 148.20 149.24 150.31 151.41 152.54 153.69 154.88 156.08 157.32 158.58 159.86 161.17 162.50 163.86 165.23 166.62 168.02 169.45 170.88 172.33 173.79 175.26 176.73 178.21 179.69 181.18 182.65 184.13 185.59 187.05 188.50 189.93 191.34 192.74 194.11 195.46 196.78 198.07 199.33 200.55 201.74 202.88 203.99 205.05 206.06 207.03 207.94 208.81 209.62 210.37 211.06 211.70 212.28 212.79 213.25 213.64 213.96 214.23 214.42 214.56 214.62 214.63 214.56 214.44 214.25 213.99 213.68 213.30 212.86 212.37 211.82 211.21 210.54 209.83 209.06 208.25 207.39 206.48 205.54 204.55 203.53 202.47 201.38 200.26 199.11 197.94 196.74 195.53 194.30 193.05 191.79 190.53 189.25 187.98 186.69 185.41 184.13 182.86 181.59 180.33 179.08 177.85 176.62 175.42 174.23 173.06 171.90 170.77 169.66 168.58 167.52 166.48 165.48 164.49 163.54 162.61 161.71 160.84 160.00 159.19 158.40 157.65 156.92 156.23 155.56 154.92 154.31 153.72 153.17 152.64 152.13 151.66 151.20 150.78 150.37 149.99 149.64 149.30 148.99 148.70 148.43 148.17 147.94 147.72 147.53 147.34 147.18 147.03 146.89 146.77 146.66 146.57 146.49 146.41 146.35 146.30 146.26 146.23 146.21
126.14 126.36 126.58 126.81 127.05 127.30 127.56 127.83 128.11 128.41 128.71 129.03 129.37 129.72 130.08 130.46 130.86 131.28 131.71 132.16 132.63 133.12 133.63 134.17 134.72 135.30 135.90 136.53 137.18 137.85 138.56 139.28 140.04 140.82 141.63 142.47 143.33 144.23 145.15 146.10 147.09 148.10 149.13 150.20 151.30 152.42 153.57 154.75 155.96 157.19 158.45 159.73 161.03 162.36 163.71 165.08 166.46 167.87 169.29 170.72 172.16 173.62 175.08 176.55 178.03 179.51 180.98 182.46 183.93 185.39 186.84 188.29 189.71 191.12 192.51 193.88 195.23 196.54 197.83 199.09 200.31 201.49 202.63 203.74 204.79 205.81 206.77 207.68 208.54 209.35 210.10 210.79 211.43 212.01 212.52 212.97 213.36 213.69 213.95 214.15 214.28 214.35 214.35 214.29 214.16 213.97 213.72 213.41 213.03 212.59 212.10 211.55 210.94 210.28 209.57 208.81 207.99 207.14 206.23 205.29 204.31 203.29 202.23 201.14 200.03 198.88 197.71 196.52 195.31 194.09 192.84 191.59 190.33 189.06 187.78 186.51 185.23 183.95 182.68 181.42 180.16 178.92 177.69 176.47 175.26 174.08 172.91 171.76 170.63 169.53 168.45 167.39 166.36 165.35 164.37 163.42 162.50 161.60 160.73 159.90 159.09 158.30 157.55 156.83 156.13 155.47 154.83 154.22 153.64 153.08 152.56 152.05 151.58 151.13 150.70 150.30 149.92 149.57 149.23 148.92 148.63 148.36 148.11 147.88 147.66 147.46 147.28 147.12 146.97 146.83 146.71 146.61 146.51 146.43 146.36 146.30 146.25 146.21 146.18 146.16
126.09 126.30 126.52 126.75 126.99 127.24 127.50 127.77 128.05 128.35 128.65 128.97 129.31 129.66 130.02 130.40 130.80 131.21 131.64 132.09 132.56 133.05 133.56 134.09 134.65 135.22 135.82 136.45 137.09 137.77 138.47 139.19 139.94 140.72 141.53 142.37 143.23 144.12 145.04 145.99 146.97 147.98 149.01 150.07 151.17 152.29 153.44 154.61 155.81 157.04 158.29 159.57 160.87 162.19 163.54 164.90 166.28 167.68 169.09 170.52 171.96 173.41 174.87 176.34 177.81 179.28 180.75 182.22 183.69 185.14 186.59 188.03 189.45 190.86 192.24 193.61 194.95 196.26 197.54 198.79 200.01 201.19 202.33 203.43 204.48 205.49 206.45 207.36 208.22 209.02 209.77 210.46 211.10 211.67 212.18 212.63 213.02 213.35 213.61 213.81 213.94 214.01 214.01 213.95 213.82 213.63 213.38 213.07 212.70 212.26 211.77 211.22 210.62 209.96 209.25 208.49 207.68 206.83 205.93 204.99 204.01 202.99 201.94 200.86 199.75 198.61 197.44 196.26 195.05 193.83 192.59 191.34 190.09 188.82 187.55 186.28 185.01 183.74 182.47 181.21 179.96 178.72 177.49 176.28 175.08 173.90 172.74 171.59 170.47 169.37 168.29 167.24 166.21 165.21 164.24 163.29 162.37 161.47 160.61 159.78 158.97 158.19 157.44 156.72 156.03 155.37 154.73 154.12 153.54 152.99 152.47 151.97 151.49 151.05 150.62 150.22 149.85 149.49 149.16 148.85 148.56 148.29 148.04 147.81 147.60 147.40 147.22 147.06 146.91 146.77 146.65 146.55 146.45 146.37 146.30 146.24 146.19 146.15 146.12 146.10
126.03 126.24 126.46 126.69 126.93 127.18 127.44 127.71 127.99 128.28 128.59 128.91 129.24 129.59 129.95 130.33 130.73 131.14 131.57 132.02 132.48 132.97 133.48 134.01 134.56 135.14 135.73 136.36 137.00 137.67 138.37 139.09 139.84 140.62 141.42 142.25 143.11 144.00 144.92 145.86 146.84 147.84 148.87 149.93 151.02 152.13 153.28 154.45 155.65 156.87 158.12 159.39 160.68 162.00 163.34 164.69 166.07 167.46 168.87 170.29 171.73 173.17 174.63 176.09 177.55 179.01 180.48 181.94 183.40 184.85 186.30 187.73 189.14 190.54 191.92 193.28 194.62 195.92 197.20 198.45 199.66 200.83 201.97 203.06 204.11 205.12 206.07 206.98 207.83 208.63 209.38 210.07 210.70 211.27 211.78 212.23 212.62 212.94 213.20 213.40 213.53 213.60 213.60 213.54 213.42 213.23 212.98 212.67 212.30 211.87 211.38 210.83 210.23 209.58 208.87 208.12 207.31 206.46 205.57 204.63 203.66 202.65 201.60 200.52 199.42 198.28 197.12 195.94 194.74 193.53 192.30 191.05 189.80 188.54 187.28 186.01 184.75 183.49 182.23 180.97 179.73 178.49 177.27 176.06 174.87 173.69 172.54 171.40 170.28 169.19 168.12 167.07 166.05 165.05 164.08 163.13 162.22 161.33 160.47 159.64 158.84 158.06 157.32 156.60 155.91 155.25 154.62 154.02 153.44 152.89 152.37 151.87 151.40 150.96 150.53 150.14 149.76 149.41 149.08 148.77 148.48 148.22 147.97 147.74 147.53 147.33 147.15 146.99 146.84 146.71 146.59 146.48 146.39 146.31 146.24 146.18 146.13 146.09 146.06 146.04
125.97 126.19 126.41 126.63 126.87 127.12 127.38 127.65 127.93 128.22 128.52 128.84 129.17 129.52 129.88 130.26 130.65 131.06 131.49 131.94 132.40 132.89 133.40 133.92 134.47 135.04 135.64 136.26 136.90 137.57 138.26 138.98 139.73 140.50 141.30 142.13 142.98 143.87 144.78 145.72 146.69 147.69 148.72 149.77 150.85 151.96 153.10 154.27 155.46 156.67 157.91 159.18 160.47 161.78 163.11 164.46 165.83 167.22 168.62 170.03 171.46 172.90 174.34 175.80 177.25 178.71 180.17 181.63 183.08 184.52 185.96 187.38 188.79 190.18 191.56 192.91 194.24 195.54 196.81 198.05 199.25 200.42 201.55 202.64 203.69 204.69 205.64 206.54 207.39 208.19 208.93 209.62 210.24 210.81 211.32 211.77 212.16 212.48 212.74 212.93 213.07 213.13 213.14 213.08 212.96 212.77 212.52 212.21 211.84 211.42 210.93 210.39 209.79 209.14 208.44 207.69 206.89 206.04 205.15 204.22 203.25 202.25 201.21 200.14 199.04 197.91 196.76 195.58 194.39 193.18 191.96 190.72 189.48 188.23 186.97 185.71 184.45 183.20 181.94 180.70 179.46 178.23 177.02 175.82 174.63 173.46 172.31 171.18 170.07 168.98 167.91 166.87 165.86 164.87 163.90 162.96 162.05 161.17 160.32 159.49 158.69 157.92 157.18 156.47 155.78 155.13 154.50 153.90 153.33 152.78 152.26 151.77 151.30 150.86 150.44 150.04 149.67 149.32 149.00 148.69 148.40 148.14 147.89 147.66 147.45 147.26 147.08 146.92 146.77 146.64 146.52 146.42 146.33 146.25 146.18 146.12 146.07 146.03 146.01 145.99
125.92 126.13 126.35 126.57 126.81 127.06 127.32 127.58 127.86 128.15 128.46 128.77 129.10 129.45 129.81 130.18 130.57 130.98 131.41 131.85 132.32 132.80 133.31 133.83 134.38 134.95 135.54 136.15 136.79 137.46 138.15 138.86 139.61 140.37 141.17 141.99 142.84 143.72 144.63 145.57 146.53 147.52 148.54 149.59 150.67 151.77 152.91 154.06 155.25 156.46 157.69 158.95 160.23 161.54 162.86 164.20 165.56 166.94 168.34 169.74 171.16 172.59 174.03 175.47 176.92 178.37 179.82 181.27 182.71 184.15 185.58 186.99 188.39 189.78 191.14 192.49 193.81 195.10 196.37 197.60 198.80 199.96 201.08 202.17 203.20 204.20 205.15 206.04 206.89 207.68 208.42 209.10 209.73 210.29 210.80 211.25 211.63 211.95 212.21 212.41 212.54 212.61 212.61 212.55 212.43 212.25 212.00 211.69 211.33 210.90 210.42 209.88 209.29 208.64 207.95 207.20 206.40 205.57 204.68 203.76 202.80 201.80 200.77 199.70 198.61 197.49 196.34 195.18 193.99 192.79 191.58 190.35 189.11 187.87 186.62 185.37 184.12 182.87 181.63 180.39 179.16 177.94 176.74 175.54 174.36 173.20 172.06 170.94 169.83 168.75 167.69 166.66 165.65 164.66 163.71 162.77 161.87 160.99 160.14 159.32 158.53 157.77 157.03 156.32 155.64 154.99 154.37 153.77 153.21 152.66 152.15 151.66 151.19 150.75 150.34 149.95 149.58 149.23 148.91 148.60 148.32 148.05 147.81 147.58 147.37 147.18 147.01 146.85 146.70 146.57 146.46 146.35 146.26 146.18 146.12 146.06 146.01 145.97 145.95 145.93
125.86 126.07 126.29 126.51 126.75 127.00 127.25 127.52 127.80 128.09 128.39 128.70 129.03 129.37 129.73 130.11 130.49 130.90 131.33 131.77 132.23 132.71 133.21 133.73 134.28 134.84 135.43 136.04 136.68 137.34 138.02 138.74 139.47 140.24 141.03 141.85 142.69 143.57 144.47 145.40 146.36 147.34 148.36 149.40 150.47 151.57 152.69 153.84 155.02 156.22 157.45 158.70 159.97 161.27 162.58 163.92 165.27 166.64 168.02 169.42 170.83 172.25 173.68 175.11 176.55 177.99 179.44 180.87 182.31 183.74 185.15 186.56 187.95 189.33 190.69 192.02 193.33 194.62 195.87 197.10 198.29 199.44 200.56 201.64 202.67 203.66 204.60 205.49 206.33 207.12 207.85 208.53 209.15 209.72 210.22 210.66 211.04 211.36 211.62 211.82 211.95 212.02 212.02 211.96 211.84 211.66 211.42 211.12 210.75 210.33 209.85 209.32 208.73 208.09 207.40 206.66 205.87 205.04 204.16 203.24 202.29 201.30 200.27 199.22 198.13 197.02 195.89 194.73 193.55 192.36 191.15 189.94 188.71 187.47 186.24 184.99 183.75 182.51 181.28 180.05 178.83 177.62 176.42 175.24 174.07 172.92 171.78 170.67 169.57 168.50 167.45 166.42 165.42 164.44 163.49 162.57 161.67 160.80 159.96 159.14 158.36 157.60 156.87 156.17 155.49 154.85 154.23 153.64 153.07 152.54 152.02 151.54 151.08 150.64 150.23 149.84 149.48 149.13 148.81 148.51 148.23 147.97 147.73 147.50 147.29 147.11 146.93 146.77 146.63 146.50 146.39 146.29 146.20 146.12 146.05 146.00 145.95 145.91 145.89 145.87
125.80 126.01 126.22 126.45 126.69 126.93 127.18 127.45 127.73 128.01 128.32 128.63 128.96 129.30 129.65 130.02 130.41 130.82 131.24 131.68 132.13 132.61 133.11 133.63 134.17 134.73 135.32 135.92 136.56 137.21 137.89 138.60 139.33 140.09 140.88 141.69 142.53 143.40 144.29 145.22 146.17 147.15 148.16 149.19 150.25 151.34 152.46 153.60 154.77 155.96 157.18 158.42 159.69 160.97 162.28 163.61 164.95 166.31 167.68 169.07 170.47 171.88 173.30 174.72 176.15 177.58 179.01 180.44 181.86 183.28 184.69 186.09 187.47 188.83 190.18 191.51 192.81 194.09 195.33 196.55 197.73 198.88 199.99 201.06 202.08 203.06 204.00 204.88 205.72 206.50 207.23 207.90 208.52 209.08 209.58 210.02 210.40 210.72 210.98 211.17 211.30 211.37 211.38 211.32 211.20 211.02 210.78 210.48 210.12 209.70 209.23 208.70 208.12 207.48 206.80 206.06 205.28 204.46 203.59 202.68 201.73 200.75 199.73 198.69 197.61 196.51 195.38 194.23 193.07 191.89 190.69 189.48 188.26 187.04 185.81 184.58 183.35 182.12 180.90 179.68 178.47 177.27 176.08 174.91 173.75 172.61 171.48 170.37 169.29 168.22 167.18 166.16 165.17 164.20 163.26 162.34 161.45 160.59 159.76 158.95 158.17 157.42 156.69 156.00 155.33 154.69 154.08 153.49 152.93 152.40 151.89 151.41 150.96 150.52 150.12 149.73 149.37 149.03 148.71 148.41 148.13 147.88 147.64 147.42 147.21 147.02 146.85 146.70 146.56 146.43 146.32 146.21 146.13 146.05 145.98 145.93 145.89 145.85 145.82 145.81
125.74 125.94 126.16 126.39 126.62 126.86 127.12 127.38 127.66 127.94 128.24 128.55 128.88 129.22 129.57 129.94 130.32 130.73 131.14 131.58 132.04 132.51 133.01 133.52 134.06 134.62 135.20 135.80 136.43 137.08 137.76 138.46 139.18 139.94 140.72 141.52 142.36 143.22 144.11 145.02 145.97 146.94 147.94 148.97 150.02 151.10 152.21 153.34 154.50 155.69 156.90 158.13 159.38 160.66 161.95 163.27 164.60 165.95 167.31 168.69 170.08 171.48 172.89 174.30 175.72 177.13 178.55 179.97 181.38 182.79 184.19 185.57 186.94 188.30 189.63 190.95 192.24 193.51 194.75 195.95 197.12 198.26 199.36 200.42 201.44 202.41 203.34 204.22 205.05 205.83 206.55 207.22 207.83 208.39 208.88 209.32 209.70 210.02 210.27 210.46 210.59 210.66 210.67 210.62 210.50 210.32 210.08 209.79 209.43 209.02 208.55 208.03 207.45 206.82 206.14 205.41 204.64 203.82 202.96 202.06 201.12 200.15 199.15 198.11 197.04 195.95 194.83 193.70 192.54 191.37 190.19 188.99 187.78 186.57 185.35 184.13 182.92 181.70 180.49 179.28 178.08 176.89 175.71 174.55 173.40 172.27 171.15 170.06 168.98 167.93 166.90 165.89 164.90 163.94 163.01 162.10 161.22 160.37 159.54 158.74 157.97 157.22 156.51 155.82 155.16 154.52 153.92 153.34 152.78 152.26 151.76 151.28 150.83 150.40 150.00 149.62 149.26 148.92 148.61 148.31 148.04 147.78 147.54 147.33 147.12 146.94 146.77 146.62 146.48 146.35 146.24 146.14 146.06 145.98 145.92 145.86 145.82 145.79 145.76 145.74
125.67 125.88 126.10 126.32 126.55 126.80 127.05 127.31 127.58 127.87 128.17 128.47 128.80 129.13 129.49 129.85 130.23 130.63 131.05 131.48 131.93 132.41 132.90 133.41 133.94 134.49 135.07 135.67 136.29 136.94 137.61 138.30 139.03 139.77 140.55 141.35 142.17 143.03 143.91 144.82 145.75 146.72 147.71 148.73 149.77 150.85 151.94 153.07 154.22 155.39 156.59 157.81 159.05 160.32 161.60 162.91 164.23 165.57 166.92 168.28 169.66 171.05 172.44 173.84 175.25 176.65 178.06 179.46 180.86 182.26 183.64 185.02 186.38 187.72 189.04 190.35 191.63 192.88 194.11 195.31 196.47 197.60 198.69 199.74 200.75 201.71 202.63 203.51 204.33 205.10 205.82 206.48 207.09 207.64 208.13 208.57 208.94 209.26 209.51 209.70 209.83 209.90 209.91 209.86 209.74 209.57 209.33 209.04 208.69 208.28 207.82 207.30 206.73 206.11 205.43 204.71 203.95 203.14 202.29 201.40 200.47 199.51 198.51 197.48 196.43 195.35 194.24 193.12 191.98 190.82 189.64 188.46 187.26 186.06 184.86 183.65 182.45 181.24 180.04 178.85 177.66 176.48 175.32 174.17 173.03 171.91 170.80 169.72 168.65 167.61 166.59 165.59 164.62 163.67 162.74 161.85 160.97 160.13 159.31 158.52 157.75 157.02 156.31 155.63 154.97 154.35 153.75 153.17 152.63 152.10 151.61 151.14 150.69 150.27 149.87 149.49 149.14 148.81 148.50 148.21 147.93 147.68 147.45 147.23 147.03 146.85 146.69 146.53 146.40 146.27 146.17 146.07 145.98 145.91 145.85 145.80 145.75 145.72 145.70 145.68
125.61 125.82 126.03 126.25 126.49 126.73 126.98 127.24 127.51 127.79 128.09 128.39 128.72 129.05 129.40 129.76 130.14 130.54 130.95 131.38 131.83 132.30 132.78 133.29 133.82 134.37 134.94 135.53 136.15 136.79 137.46 138.15 138.86 139.60 140.37 141.16 141.98 142.83 143.70 144.60 145.53 146.48 147.47 148.47 149.51 150.57 151.66 152.77 153.91 155.08 156.26 157.47 158.71 159.96 161.23 162.52 163.83 165.16 166.49 167.85 169.21 170.58 171.97 173.35 174.74 176.14 177.53 178.92 180.31 181.69 183.06 184.42 185.77 187.10 188.41 189.71 190.97 192.22 193.43 194.62 195.77 196.89 197.97 199.01 200.01 200.97 201.88 202.74 203.56 204.32 205.03 205.69 206.29 206.84 207.33 207.76 208.13 208.44 208.70 208.89 209.02 209.09 209.10 209.04 208.93 208.76 208.53 208.24 207.89 207.49 207.03 206.52 205.96 205.34 204.68 203.97 203.21 202.41 201.57 200.69 199.77 198.82 197.83 196.82 195.77 194.71 193.61 192.50 191.37 190.22 189.06 187.89 186.71 185.52 184.33 183.14 181.94 180.75 179.57 178.38 177.21 176.05 174.89 173.76 172.63 171.52 170.43 169.36 168.31 167.27 166.26 165.28 164.31 163.37 162.46 161.57 160.71 159.87 159.07 158.28 157.53 156.80 156.10 155.43 154.78 154.16 153.57 153.00 152.46 151.95 151.46 150.99 150.55 150.13 149.74 149.37 149.02 148.69 148.38 148.10 147.83 147.58 147.35 147.14 146.94 146.76 146.60 146.45 146.32 146.19 146.09 145.99 145.91 145.84 145.78 145.73 145.69 145.65 145.63 145.62
125.55 125.75 125.97 126.19 126.42 126.66 126.90 127.16 127.43 127.71 128.01 128.31 128.63 128.96 129.31 129.67 130.05 130.44 130.85 131.27 131.72 132.18 132.66 133.17 133.69 134.23 134.80 135.39 136.00 136.64 137.29 137.98 138.69 139.42 140.18 140.96 141.78 142.61 143.48 144.37 145.29 146.24 147.21 148.21 149.23 150.28 151.36 152.46 153.59 154.74 155.92 157.12 158.34 159.58 160.84 162.11 163.41 164.72 166.05 167.38 168.73 170.09 171.46 172.84 174.21 175.59 176.97 178.35 179.72 181.09 182.45 183.79 185.13 186.44 187.74 189.02 190.28 191.51 192.71 193.88 195.03 196.13 197.20 198.23 199.22 200.17 201.07 201.93 202.73 203.49 204.20 204.85 205.45 205.99 206.47 206.90 207.27 207.58 207.83 208.02 208.15 208.22 208.23 208.18 208.07 207.90 207.67 207.39 207.05 206.65 206.20 205.69 205.13 204.53 203.87 203.17 202.42 201.63 200.80 199.93 199.03 198.08 197.11 196.11 195.08 194.02 192.94 191.84 190.73 189.59 188.45 187.29 186.12 184.95 183.77 182.59 181.41 180.24 179.06 177.89 176.73 175.58 174.45 173.32 172.21 171.11 170.04 168.98 167.94 166.92 165.92 164.94 163.99 163.06 162.16 161.28 160.43 159.61 158.81 158.04 157.29 156.57 155.88 155.21 154.58 153.96 153.38 152.82 152.29 151.78 151.29 150.84 150.40 149.99 149.60 149.23 148.89 148.57 148.26 147.98 147.72 147.47 147.25 147.04 146.85 146.67 146.51 146.36 146.23 146.11 146.01 145.91 145.83 145.76 145.70 145.66 145.62 145.59 145.57 145.55
125.48 125.69 125.90 126.12 126.35 126.58 126.83 127.09 127.36 127.63 127.93 128.23 128.54 128.87 129.22 129.57 129.95 130.34 130.74 131.16 131.60 132.06 132.54 133.04 133.56 134.10 134.66 135.24 135.85 136.47 137.13 137.80 138.50 139.23 139.98 140.76 141.56 142.39 143.25 144.13 145.04 145.98 146.94 147.93 148.94 149.98 151.05 152.14 153.25 154.39 155.56 156.74 157.95 159.17 160.42 161.68 162.96 164.26 165.57 166.90 168.23 169.58 170.93 172.29 173.65 175.01 176.38 177.74 179.10 180.45 181.79 183.13 184.44 185.75 187.03 188.30 189.54 190.76 191.95 193.11 194.24 195.33 196.39 197.41 198.39 199.33 200.22 201.07 201.86 202.61 203.31 203.96 204.55 205.09 205.57 205.99 206.36 206.66 206.91 207.10 207.23 207.30 207.31 207.26 207.16 206.99 206.77 206.49 206.15 205.76 205.31 204.81 204.26 203.67 203.02 202.33 201.59 200.81 199.99 199.13 198.24 197.31 196.35 195.36 194.34 193.30 192.23 191.15 190.04 188.93 187.79 186.65 185.50 184.34 183.18 182.01 180.85 179.69 178.53 177.38 176.23 175.10 173.97 172.86 171.76 170.68 169.62 168.57 167.55 166.54 165.56 164.59 163.65 162.74 161.85 160.98 160.14 159.33 158.54 157.78 157.04 156.33 155.65 154.99 154.36 153.76 153.18 152.63 152.10 151.60 151.13 150.67 150.25 149.84 149.46 149.10 148.76 148.44 148.14 147.86 147.60 147.36 147.14 146.94 146.75 146.57 146.42 146.27 146.14 146.03 145.93 145.83 145.76 145.69 145.63 145.58 145.55 145.52 145.50 145.49
125.42 125.62 125.83 126.05 126.28 126.51 126.76 127.01 127.28 127.55 127.84 128.14 128.45 128.78 129.12 129.48 129.85 130.23 130.63 131.05 131.49 131.94 132.42 132.91 133.42 133.95 134.51 135.09 135.69 136.31 136.95 137.62 138.32 139.03 139.78 140.55 141.34 142.16 143.01 143.88 144.78 145.70 146.66 147.63 148.64 149.66 150.72 151.80 152.90 154.03 155.17 156.35 157.54 158.75 159.98 161.23 162.50 163.78 165.08 166.39 167.71 169.03 170.37 171.71 173.06 174.41 175.76 177.10 178.45 179.78 181.11 182.42 183.73 185.02 186.29 187.54 188.76 189.97 191.14 192.29 193.41 194.49 195.54 196.54 197.51 198.44 199.32 200.16 200.95 201.69 202.38 203.02 203.60 204.14 204.61 205.03 205.39 205.70 205.95 206.13 206.26 206.33 206.35 206.30 206.19 206.03 205.81 205.54 205.20 204.82 204.38 203.89 203.35 202.76 202.12 201.44 200.71 199.94 199.14 198.29 197.41 196.49 195.54 194.57 193.56 192.54 191.49 190.42 189.33 188.22 187.11 185.98 184.85 183.70 182.56 181.41 180.26 179.11 177.97 176.83 175.71 174.59 173.48 172.38 171.30 170.23 169.18 168.15 167.14 166.15 165.17 164.23 163.30 162.40 161.52 160.66 159.84 159.03 158.26 157.50 156.78 156.08 155.41 154.76 154.14 153.55 152.98 152.43 151.92 151.42 150.95 150.51 150.09 149.69 149.31 148.95 148.62 148.31 148.02 147.74 147.49 147.25 147.03 146.83 146.65 146.48 146.32 146.18 146.05 145.94 145.84 145.75 145.68 145.61 145.56 145.51 145.48 145.45 145.43 145.42
125.35 125.55 125.76 125.98 126.20 126.44 126.68 126.93 127.20 127.47 127.76 128.05 128.36 128.69 129.02 129.38 129.74 130.12 130.52 130.93 131.37 131.82 132.28 132.77 133.28 133.81 134.36 134.93 135.52 136.13 136.77 137.43 138.12 138.83 139.56 140.32 141.11 141.92 142.76 143.62 144.51 145.42 146.36 147.33 148.32 149.33 150.38 151.44 152.53 153.64 154.78 155.93 157.11 158.31 159.53 160.76 162.01 163.28 164.56 165.85 167.15 168.47 169.79 171.11 172.44 173.77 175.11 176.43 177.76 179.08 180.39 181.69 182.98 184.25 185.50 186.74 187.95 189.14 190.30 191.44 192.54 193.61 194.64 195.64 196.59 197.51 198.38 199.21 199.99 200.72 201.41 202.04 202.62 203.14 203.61 204.03 204.39 204.69 204.93 205.12 205.25 205.32 205.33 205.29 205.19 205.03 204.81 204.54 204.22 203.84 203.41 202.92 202.39 201.81 201.18 200.51 199.79 199.04 198.24 197.41 196.54 195.64 194.70 193.74 192.75 191.74 190.70 189.65 188.58 187.49 186.39 185.28 184.16 183.03 181.91 180.77 179.64 178.51 177.39 176.27 175.15 174.05 172.96 171.88 170.81 169.76 168.73 167.71 166.71 165.73 164.78 163.84 162.93 162.04 161.18 160.33 159.52 158.73 157.96 157.22 156.51 155.82 155.16 154.52 153.91 153.32 152.76 152.23 151.72 151.23 150.77 150.33 149.92 149.53 149.16 148.81 148.48 148.17 147.88 147.62 147.37 147.13 146.92 146.72 146.54 146.38 146.22 146.09 145.96 145.85 145.76 145.67 145.60 145.53 145.48 145.44 145.40 145.38 145.36 145.35
125.28 125.48 125.69 125.91 126.13 126.36 126.60 126.85 127.11 127.39 127.67 127.96 128.27 128.59 128.92 129.27 129.63 130.01 130.41 130.82 131.24 131.69 132.15 132.63 133.13 133.66 134.20 134.76 135.35 135.96 136.59 137.24 137.92 138.62 139.34 140.09 140.87 141.67 142.50 143.35 144.23 145.13 146.06 147.01 147.99 148.99 150.02 151.07 152.15 153.24 154.36 155.51 156.67 157.85 159.05 160.27 161.50 162.75 164.02 165.29 166.58 167.87 169.18 170.49 171.80 173.11 174.43 175.74 177.05 178.35 179.64 180.93 182.20 183.45 184.69 185.91 187.11 188.28 189.43 190.54 191.63 192.69 193.71 194.69 195.64 196.54 197.40 198.22 198.99 199.71 200.39 201.01 201.58 202.10 202.57 202.98 203.33 203.63 203.88 204.06 204.19 204.26 204.28 204.23 204.13 203.98 203.77 203.50 203.18 202.81 202.39 201.91 201.39 200.82 200.20 199.54 198.84 198.09 197.31 196.49 195.63 194.74 193.83 192.88 191.91 190.91 189.89 188.85 187.80 186.73 185.64 184.55 183.45 182.34 181.23 180.11 179.00 177.89 176.78 175.67 174.58 173.49 172.42 171.35 170.30 169.27 168.25 167.25 166.27 165.31 164.36 163.44 162.55 161.67 160.82 159.99 159.19 158.41 157.66 156.93 156.23 155.55 154.90 154.27 153.67 153.09 152.54 152.02 151.52 151.04 150.59 150.16 149.75 149.36 149.00 148.66 148.33 148.03 147.75 147.49 147.24 147.02 146.81 146.61 146.43 146.27 146.12 145.99 145.87 145.76 145.67 145.59 145.51 145.45 145.40 145.36 145.33 145.31 145.29 145.28
125.22 125.41 125.62 125.83 126.05 126.28 126.52 126.77 127.03 127.30 127.58 127.87 128.18 128.49 128.82 129.17 129.53 129.90 130.29 130.69 131.12 131.56 132.01 132.49 132.98 133.50 134.04 134.59 135.17 135.77 136.39 137.04 137.71 138.40 139.12 139.86 140.62 141.41 142.23 143.07 143.93 144.82 145.74 146.68 147.65 148.64 149.65 150.69 151.75 152.83 153.94 155.06 156.21 157.37 158.56 159.76 160.98 162.21 163.46 164.71 165.98 167.26 168.54 169.83 171.13 172.42 173.72 175.01 176.30 177.59 178.86 180.13 181.38 182.62 183.84 185.04 186.23 187.38 188.51 189.62 190.69 191.73 192.74 193.71 194.64 195.53 196.38 197.19 197.95 198.66 199.33 199.94 200.51 201.02 201.48 201.89 202.24 202.54 202.78 202.96 203.09 203.16 203.18 203.14 203.04 202.89 202.68 202.42 202.11 201.74 201.33 200.86 200.35 199.79 199.18 198.53 197.84 197.11 196.34 195.53 194.69 193.82 192.91 191.98 191.03 190.04 189.04 188.02 186.98 185.93 184.86 183.79 182.70 181.61 180.52 179.42 178.33 177.23 176.14 175.06 173.98 172.91 171.86 170.81 169.78 168.76 167.76 166.77 165.81 164.86 163.94 163.03 162.15 161.29 160.45 159.64 158.85 158.08 157.34 156.62 155.93 155.27 154.63 154.01 153.42 152.86 152.32 151.80 151.31 150.84 150.39 149.97 149.57 149.19 148.84 148.50 148.18 147.89 147.61 147.36 147.12 146.89 146.69 146.50 146.33 146.17 146.02 145.89 145.78 145.67 145.58 145.50 145.43 145.37 145.32 145.28 145.25 145.23 145.22 145.21
125.15 125.34 125.55 125.76 125.98 126.21 126.44 126.69 126.95 127.21 127.49 127.78 128.08 128.39 128.72 129.06 129.41 129.78 130.17 130.57 130.99 131.42 131.87 132.34 132.83 133.34 133.87 134.42 134.99 135.58 136.20 136.83 137.49 138.18 138.88 139.61 140.37 141.15 141.95 142.78 143.63 144.51 145.41 146.34 147.29 148.27 149.27 150.29 151.34 152.40 153.49 154.60 155.73 156.88 158.05 159.23 160.43 161.65 162.87 164.11 165.36 166.62 167.89 169.16 170.44 171.71 172.99 174.27 175.54 176.80 178.06 179.31 180.54 181.76 182.96 184.15 185.31 186.45 187.57 188.66 189.71 190.74 191.73 192.69 193.61 194.49 195.33 196.12 196.87 197.57 198.23 198.84 199.40 199.90 200.36 200.76 201.11 201.40 201.64 201.82 201.95 202.02 202.04 202.00 201.91 201.76 201.56 201.30 201.00 200.64 200.23 199.77 199.27 198.72 198.13 197.49 196.81 196.09 195.33 194.54 193.71 192.86 191.97 191.05 190.11 189.15 188.16 187.16 186.14 185.11 184.06 183.00 181.94 180.87 179.79 178.71 177.64 176.56 175.49 174.42 173.36 172.31 171.27 170.25 169.23 168.23 167.25 166.28 165.33 164.40 163.49 162.60 161.74 160.89 160.07 159.27 158.49 157.74 157.01 156.31 155.63 154.98 154.35 153.75 153.17 152.61 152.08 151.58 151.09 150.63 150.20 149.78 149.39 149.02 148.67 148.34 148.03 147.74 147.47 147.22 146.99 146.77 146.57 146.38 146.21 146.06 145.92 145.79 145.68 145.58 145.49 145.41 145.35 145.29 145.24 145.21 145.18 145.16 145.15 145.14
125.08 125.27 125.48 125.69 125.90 126.13 126.36 126.61 126.86 127.13 127.40 127.69 127.98 128.29 128.61 128.95 129.30 129.67 130.05 130.44 130.85 131.28 131.73 132.19 132.67 133.18 133.70 134.24 134.80 135.39 135.99 136.62 137.27 137.95 138.64 139.36 140.11 140.87 141.67 142.48 143.32 144.19 145.08 145.99 146.93 147.89 148.87 149.88 150.91 151.96 153.04 154.13 155.24 156.37 157.52 158.69 159.87 161.07 162.28 163.50 164.73 165.97 167.21 168.47 169.72 170.98 172.24 173.49 174.74 175.99 177.23 178.46 179.67 180.87 182.06 183.23 184.37 185.49 186.59 187.66 188.71 189.72 190.69 191.64 192.54 193.41 194.23 195.02 195.76 196.45 197.10 197.70 198.25 198.75 199.20 199.59 199.94 200.23 200.46 200.64 200.77 200.84 200.86 200.83 200.74 200.59 200.40 200.15 199.85 199.50 199.10 198.65 198.16 197.62 197.03 196.41 195.74 195.04 194.29 193.52 192.71 191.86 190.99 190.09 189.17 188.23 187.26 186.27 185.27 184.26 183.23 182.19 181.14 180.09 179.04 177.98 176.92 175.87 174.81 173.77 172.73 171.70 170.68 169.67 168.67 167.69 166.72 165.77 164.84 163.93 163.04 162.16 161.31 160.48 159.67 158.89 158.13 157.39 156.68 155.99 155.32 154.68 154.07 153.47 152.91 152.36 151.84 151.35 150.87 150.42 149.99 149.59 149.20 148.84 148.50 148.18 147.87 147.59 147.33 147.08 146.85 146.64 146.45 146.27 146.10 145.95 145.81 145.69 145.58 145.49 145.40 145.33 145.26 145.21 145.16 145.13 145.10 145.09 145.08 145.07
125.01 125.20 125.40 125.61 125.83 126.05 126.28 126.52 126.77 127.04 127.31 127.59 127.88 128.19 128.51 128.84 129.19 129.55 129.92 130.31 130.72 131.14 131.58 132.04 132.51 133.01 133.52 134.06 134.61 135.19 135.79 136.40 137.05 137.71 138.40 139.10 139.84 140.59 141.37 142.18 143.01 143.86 144.73 145.63 146.56 147.50 148.47 149.46 150.48 151.51 152.57 153.64 154.74 155.85 156.98 158.13 159.29 160.47 161.66 162.86 164.07 165.29 166.52 167.75 168.99 170.22 171.46 172.70 173.93 175.16 176.37 177.58 178.78 179.96 181.13 182.28 183.40 184.51 185.59 186.64 187.67 188.66 189.63 190.55 191.44 192.30 193.11 193.88 194.61 195.30 195.93 196.52 197.07 197.56 198.00 198.39 198.73 199.02 199.25 199.43 199.56 199.63 199.65 199.62 199.53 199.39 199.20 198.96 198.67 198.32 197.93 197.50 197.01 196.48 195.91 195.30 194.64 193.95 193.23 192.46 191.67 190.84 189.99 189.11 188.20 187.28 186.33 185.36 184.38 183.38 182.37 181.36 180.33 179.30 178.26 177.22 176.19 175.15 174.12 173.09 172.07 171.06 170.06 169.07 168.09 167.13 166.18 165.25 164.34 163.44 162.57 161.71 160.88 160.06 159.27 158.50 157.76 157.03 156.33 155.66 155.01 154.38 153.77 153.19 152.64 152.10 151.60 151.11 150.65 150.20 149.79 149.39 149.01 148.66 148.32 148.01 147.71 147.44 147.18 146.94 146.72 146.51 146.32 146.15 145.99 145.84 145.71 145.59 145.48 145.39 145.31 145.24 145.17 145.12 145.08 145.05 145.03 145.01 145.00 145.00
124.94 125.13 125.33 125.53 125.75 125.97 126.20 126.44 126.69 126.94 127.21 127.49 127.78 128.09 128.40 128.73 129.07 129.42 129.79 130.18 130.58 131.00 131.43 131.88 132.35 132.84 133.35 133.87 134.42 134.99 135.57 136.18 136.81 137.47 138.14 138.84 139.56 140.31 141.08 141.87 142.68 143.52 144.38 145.27 146.17 147.10 148.06 149.03 150.03 151.05 152.09 153.14 154.22 155.32 156.43 157.56 158.70 159.86 161.03 162.21 163.40 164.60 165.81 167.02 168.23 169.45 170.67 171.88 173.09 174.30 175.50 176.68 177.86 179.02 180.17 181.30 182.41 183.50 184.56 185.59 186.60 187.58 188.53 189.44 190.32 191.16 191.96 192.72 193.43 194.11 194.74 195.32 195.85 196.34 196.77 197.16 197.49 197.78 198.01 198.19 198.31 198.39 198.41 198.38 198.29 198.16 197.97 197.74 197.45 197.12 196.74 196.31 195.83 195.32 194.76 194.16 193.52 192.84 192.13 191.38 190.60 189.79 188.96 188.10 187.21 186.30 185.37 184.42 183.46 182.48 181.50 180.50 179.49 178.48 177.47 176.45 175.43 174.42 173.41 172.40 171.40 170.41 169.43 168.46 167.50 166.56 165.63 164.72 163.82 162.94 162.09 161.25 160.43 159.63 158.86 158.10 157.37 156.67 155.98 155.32 154.68 154.07 153.48 152.91 152.36 151.84 151.34 150.87 150.41 149.98 149.57 149.19 148.82 148.47 148.15 147.84 147.55 147.28 147.03 146.80 146.58 146.38 146.19 146.02 145.87 145.73 145.60 145.49 145.38 145.29 145.21 145.14 145.09 145.04 145.00 144.97 144.95 144.93 144.93 144.93
124.87 125.06 125.25 125.46 125.67 125.89 126.12 126.35 126.60 126.85 127.12 127.39 127.68 127.98 128.29 128.61 128.95 129.30 129.67 130.04 130.44 130.85 131.28 131.72 132.19 132.67 133.17 133.68 134.22 134.78 135.36 135.96 136.58 137.22 137.89 138.57 139.28 140.01 140.77 141.55 142.35 143.17 144.02 144.89 145.78 146.70 147.63 148.59 149.57 150.57 151.59 152.63 153.69 154.77 155.86 156.97 158.09 159.23 160.38 161.54 162.71 163.89 165.08 166.27 167.46 168.66 169.85 171.05 172.24 173.42 174.60 175.77 176.92 178.06 179.19 180.30 181.39 182.46 183.50 184.52 185.51 186.48 187.41 188.30 189.16 189.99 190.78 191.52 192.23 192.89 193.51 194.08 194.61 195.09 195.52 195.90 196.23 196.51 196.74 196.91 197.04 197.11 197.14 197.11 197.03 196.90 196.72 196.49 196.21 195.88 195.51 195.09 194.63 194.12 193.58 192.99 192.36 191.70 191.01 190.28 189.51 188.72 187.90 187.06 186.19 185.30 184.39 183.46 182.52 181.57 180.60 179.62 178.64 177.65 176.65 175.66 174.66 173.67 172.68 171.69 170.71 169.74 168.78 167.83 166.89 165.97 165.06 164.17 163.29 162.43 161.59 160.77 159.97 159.19 158.43 157.70 156.98 156.29 155.62 154.97 154.35 153.75 153.17 152.61 152.08 151.57 151.09 150.62 150.18 149.76 149.36 148.98 148.62 148.28 147.97 147.67 147.39 147.12 146.88 146.65 146.44 146.24 146.07 145.90 145.75 145.61 145.49 145.38 145.28 145.19 145.12 145.05 145.00 144.95 144.92 144.89 144.87 144.86 144.85 144.86
124.80 124.98 125.18 125.38 125.59 125.81 126.03 126.27 126.51 126.76 127.02 127.29 127.58 127.87 128.18 128.50 128.83 129.18 129.53 129.91 130.30 130.70 131.12 131.56 132.02 132.49 132.98 133.49 134.02 134.57 135.14 135.73 136.34 136.97 137.62 138.30 139.00 139.72 140.46 141.22 142.01 142.82 143.65 144.51 145.38 146.28 147.20 148.15 149.11 150.09 151.09 152.11 153.15 154.21 155.28 156.37 157.48 158.59 159.72 160.86 162.01 163.17 164.33 165.50 166.67 167.85 169.02 170.19 171.36 172.52 173.68 174.83 175.96 177.08 178.19 179.28 180.35 181.40 182.43 183.43 184.40 185.34 186.26 187.14 187.99 188.80 189.57 190.31 191.00 191.65 192.26 192.82 193.34 193.81 194.23 194.61 194.93 195.21 195.44 195.61 195.74 195.81 195.84 195.81 195.73 195.61 195.43 195.21 194.94 194.62 194.26 193.85 193.40 192.91 192.37 191.80 191.19 190.54 189.86 189.14 188.40 187.63 186.83 186.00 185.15 184.28 183.39 182.48 181.56 180.63 179.68 178.72 177.76 176.79 175.82 174.85 173.87 172.90 171.93 170.97 170.01 169.06 168.12 167.19 166.28 165.37 164.48 163.61 162.75 161.91 161.09 160.29 159.51 158.75 158.00 157.28 156.58 155.91 155.25 154.62 154.01 153.42 152.86 152.32 151.80 151.30 150.82 150.37 149.94 149.53 149.14 148.77 148.42 148.09 147.78 147.49 147.22 146.96 146.72 146.50 146.30 146.11 145.93 145.78 145.63 145.50 145.38 145.27 145.18 145.09 145.02 144.96 144.91 144.87 144.83 144.81 144.79 144.78 144.78 144.78
124.72 124.91 125.10 125.30 125.51 125.73 125.95 126.18 126.42 126.67 126.93 127.19 127.47 127.76 128.07 128.38 128.71 129.05 129.40 129.77 130.15 130.55 130.97 131.40 131.85 132.31 132.79 133.30 133.82 134.36 134.92 135.50 136.10 136.72 137.36 138.02 138.71 139.41 140.14 140.89 141.67 142.46 143.28 144.12 144.98 145.86 146.77 147.69 148.63 149.60 150.58 151.59 152.61 153.64 154.70 155.76 156.85 157.94 159.05 160.17 161.30 162.43 163.57 164.72 165.87 167.02 168.17 169.32 170.47 171.61 172.75 173.87 174.98 176.09 177.17 178.24 179.29 180.32 181.33 182.31 183.26 184.19 185.09 185.95 186.79 187.58 188.34 189.06 189.74 190.38 190.98 191.54 192.04 192.51 192.92 193.29 193.61 193.89 194.11 194.29 194.41 194.49 194.51 194.49 194.41 194.29 194.12 193.91 193.64 193.34 192.98 192.58 192.14 191.66 191.14 190.58 189.99 189.35 188.69 187.99 187.26 186.51 185.73 184.92 184.09 183.24 182.37 181.49 180.58 179.67 178.75 177.81 176.87 175.92 174.97 174.02 173.07 172.12 171.17 170.23 169.30 168.37 167.45 166.54 165.65 164.76 163.90 163.04 162.21 161.39 160.58 159.80 159.03 158.29 157.57 156.86 156.18 155.52 154.88 154.26 153.67 153.09 152.54 152.01 151.51 151.02 150.56 150.12 149.70 149.30 148.92 148.56 148.22 147.90 147.59 147.31 147.05 146.80 146.57 146.35 146.15 145.97 145.80 145.65 145.51 145.38 145.27 145.16 145.07 144.99 144.93 144.87 144.82 144.78 144.75 144.73 144.71 144.70 144.70 144.71
124.65 124.84 125.03 125.23 125.43 125.64 125.86 126.09 126.33 126.57 126.83 127.09 127.37 127.65 127.95 128.26 128.59 128.92 129.27 129.63 130.01 130.40 130.81 131.23 131.67 132.13 132.61 133.10 133.61 134.14 134.69 135.26 135.85 136.46 137.09 137.74 138.41 139.11 139.82 140.56 141.32 142.10 142.90 143.72 144.57 145.43 146.32 147.23 148.15 149.10 150.06 151.05 152.05 153.07 154.10 155.15 156.21 157.28 158.37 159.46 160.57 161.68 162.80 163.93 165.06 166.18 167.31 168.44 169.57 170.68 171.80 172.90 173.99 175.07 176.14 177.18 178.21 179.22 180.21 181.17 182.11 183.02 183.90 184.75 185.57 186.35 187.09 187.80 188.47 189.10 189.68 190.23 190.73 191.18 191.59 191.96 192.27 192.54 192.76 192.94 193.06 193.14 193.16 193.14 193.07 192.96 192.79 192.58 192.33 192.03 191.68 191.30 190.87 190.40 189.89 189.35 188.77 188.15 187.50 186.82 186.11 185.37 184.61 183.82 183.01 182.18 181.34 180.47 179.59 178.70 177.80 176.88 175.97 175.04 174.11 173.18 172.26 171.33 170.40 169.48 168.57 167.66 166.77 165.88 165.01 164.15 163.30 162.47 161.65 160.85 160.06 159.30 158.55 157.83 157.12 156.43 155.77 155.12 154.50 153.90 153.32 152.76 152.22 151.71 151.21 150.74 150.29 149.86 149.45 149.06 148.69 148.34 148.01 147.70 147.41 147.13 146.87 146.63 146.41 146.20 146.01 145.83 145.67 145.52 145.39 145.26 145.15 145.05 144.97 144.89 144.83 144.77 144.73 144.69 144.66 144.64 144.63 144.63 144.63 144.64
124.58 124.76 124.95 125.15 125.35 125.56 125.78 126.00 126.24 126.48 126.73 126.99 127.26 127.54 127.84 128.14 128.46 128.79 129.13 129.49 129.86 130.25 130.65 131.07 131.50 131.95 132.41 132.90 133.40 133.92 134.46 135.02 135.60 136.20 136.82 137.46 138.12 138.80 139.50 140.22 140.96 141.73 142.52 143.32 144.15 145.00 145.87 146.76 147.67 148.59 149.54 150.50 151.48 152.48 153.49 154.52 155.56 156.61 157.68 158.75 159.83 160.92 162.02 163.12 164.23 165.33 166.44 167.55 168.65 169.74 170.83 171.91 172.98 174.04 175.08 176.11 177.12 178.11 179.08 180.02 180.94 181.83 182.70 183.53 184.33 185.09 185.83 186.52 187.18 187.79 188.37 188.90 189.39 189.84 190.24 190.60 190.91 191.18 191.40 191.57 191.69 191.77 191.80 191.78 191.71 191.60 191.44 191.24 190.99 190.70 190.37 189.99 189.58 189.12 188.63 188.09 187.53 186.93 186.30 185.63 184.94 184.22 183.48 182.71 181.92 181.11 180.28 179.44 178.58 177.71 176.83 175.94 175.05 174.15 173.24 172.33 171.43 170.52 169.62 168.72 167.83 166.95 166.08 165.21 164.36 163.52 162.69 161.88 161.08 160.30 159.54 158.79 158.07 157.36 156.67 156.00 155.35 154.72 154.12 153.53 152.96 152.42 151.90 151.40 150.92 150.46 150.02 149.60 149.20 148.82 148.46 148.12 147.80 147.50 147.21 146.95 146.70 146.47 146.25 146.05 145.86 145.69 145.53 145.39 145.26 145.14 145.04 144.94 144.86 144.79 144.73 144.68 144.64 144.60 144.58 144.56 144.55 144.55 144.55 144.56
124.51 124.69 124.88 125.07 125.27 125.48 125.69 125.91 126.14 126.38 126.63 126.89 127.16 127.43 127.72 128.02 128.34 128.66 129.00 129.35 129.71 130.09 130.49 130.90 131.32 131.76 132.22 132.70 133.19 133.70 134.23 134.78 135.35 135.93 136.54 137.17 137.81 138.48 139.17 139.88 140.61 141.36 142.13 142.92 143.73 144.56 145.41 146.28 147.17 148.08 149.01 149.95 150.91 151.89 152.88 153.88 154.90 155.93 156.98 158.03 159.09 160.16 161.23 162.31 163.39 164.47 165.56 166.64 167.72 168.79 169.86 170.92 171.96 173.00 174.02 175.03 176.02 176.98 177.93 178.86 179.76 180.63 181.48 182.29 183.07 183.83 184.54 185.22 185.87 186.47 187.04 187.56 188.04 188.48 188.88 189.23 189.54 189.80 190.01 190.18 190.31 190.38 190.41 190.40 190.34 190.23 190.08 189.88 189.64 189.36 189.04 188.67 188.27 187.82 187.34 186.83 186.27 185.69 185.08 184.43 183.76 183.06 182.33 181.58 180.82 180.03 179.22 178.40 177.56 176.72 175.86 174.99 174.12 173.24 172.36 171.47 170.59 169.71 168.83 167.96 167.09 166.23 165.38 164.53 163.70 162.88 162.08 161.29 160.51 159.75 159.01 158.28 157.57 156.88 156.21 155.56 154.93 154.32 153.73 153.16 152.61 152.08 151.57 151.08 150.61 150.17 149.74 149.33 148.95 148.58 148.23 147.90 147.59 147.30 147.02 146.76 146.52 146.30 146.09 145.89 145.71 145.55 145.40 145.26 145.14 145.02 144.92 144.83 144.76 144.69 144.63 144.58 144.54 144.51 144.49 144.48 144.47 144.47 144.48 144.49
124.44 124.61 124.80 124.99 125.19 125.39 125.60 125.82 126.05 126.29 126.53 126.79 127.05 127.32 127.61 127.90 128.21 128.53 128.86 129.21 129.57 129.94 130.32 130.73 131.14 131.58 132.03 132.49 132.98 133.48 134.00 134.54 135.09 135.67 136.26 136.88 137.51 138.16 138.84 139.53 140.25 140.98 141.74 142.51 143.30 144.12 144.95 145.80 146.68 147.56 148.47 149.39 150.33 151.29 152.26 153.24 154.24 155.25 156.27 157.30 158.34 159.38 160.43 161.49 162.55 163.61 164.67 165.72 166.78 167.83 168.87 169.91 170.93 171.95 172.95 173.93 174.90 175.85 176.77 177.68 178.56 179.41 180.24 181.04 181.81 182.54 183.25 183.91 184.54 185.14 185.69 186.20 186.68 187.11 187.50 187.84 188.14 188.40 188.62 188.78 188.91 188.98 189.02 189.00 188.94 188.84 188.70 188.51 188.28 188.00 187.69 187.34 186.94 186.51 186.05 185.54 185.01 184.44 183.84 183.21 182.56 181.88 181.17 180.45 179.70 178.93 178.15 177.35 176.53 175.71 174.87 174.03 173.18 172.32 171.47 170.61 169.75 168.89 168.03 167.18 166.34 165.50 164.67 163.85 163.04 162.24 161.46 160.69 159.93 159.19 158.47 157.76 157.08 156.40 155.75 155.12 154.50 153.91 153.34 152.78 152.25 151.73 151.24 150.76 150.31 149.88 149.46 149.07 148.69 148.34 148.00 147.68 147.38 147.09 146.83 146.58 146.34 146.13 145.92 145.74 145.57 145.41 145.26 145.13 145.01 144.90 144.81 144.72 144.65 144.59 144.53 144.49 144.45 144.42 144.40 144.39 144.39 144.39 144.40 144.41
124.36 124.54 124.72 124.91 125.11 125.31 125.52 125.73 125.96 126.19 126.43 126.68 126.94 127.21 127.49 127.78 128.08 128.40 128.72 129.06 129.42 129.78 130.16 130.56 130.97 131.39 131.83 132.29 132.76 133.25 133.76 134.29 134.84 135.40 135.98 136.58 137.20 137.85 138.50 139.18 139.88 140.60 141.34 142.10 142.88 143.67 144.49 145.32 146.17 147.04 147.93 148.83 149.75 150.69 151.64 152.60 153.57 154.56 155.56 156.56 157.58 158.60 159.63 160.66 161.69 162.73 163.77 164.80 165.83 166.86 167.88 168.89 169.89 170.88 171.86 172.82 173.77 174.70 175.61 176.49 177.35 178.19 179.00 179.78 180.53 181.25 181.94 182.59 183.21 183.79 184.33 184.84 185.30 185.72 186.10 186.44 186.74 186.99 187.20 187.37 187.49 187.57 187.60 187.59 187.54 187.44 187.30 187.12 186.90 186.64 186.33 185.99 185.61 185.19 184.74 184.25 183.73 183.18 182.60 181.99 181.35 180.69 180.01 179.30 178.57 177.82 177.06 176.28 175.49 174.69 173.88 173.06 172.23 171.40 170.57 169.73 168.89 168.06 167.23 166.40 165.58 164.76 163.96 163.16 162.37 161.60 160.84 160.09 159.35 158.63 157.93 157.24 156.57 155.92 155.29 154.67 154.08 153.50 152.94 152.40 151.88 151.38 150.90 150.45 150.00 149.58 149.18 148.80 148.44 148.09 147.76 147.45 147.16 146.89 146.63 146.39 146.17 145.96 145.76 145.58 145.42 145.26 145.12 145.00 144.88 144.78 144.69 144.61 144.54 144.48 144.43 144.39 144.36 144.33 144.32 144.31 144.31 144.31 144.32 144.34
124.29 124.46 124.65 124.83 125.02 125.22 125.43 125.64 125.86 126.09 126.33 126.58 126.83 127.10 127.37 127.66 127.96 128.27 128.59 128.92 129.26 129.62 130.00 130.38 130.79 131.20 131.63 132.08 132.55 133.03 133.53 134.04 134.58 135.13 135.70 136.29 136.90 137.52 138.17 138.83 139.52 140.22 140.94 141.68 142.44 143.22 144.02 144.84 145.67 146.52 147.39 148.27 149.17 150.08 151.01 151.95 152.90 153.86 154.84 155.82 156.81 157.81 158.81 159.82 160.83 161.85 162.86 163.87 164.88 165.88 166.88 167.87 168.85 169.82 170.77 171.71 172.64 173.54 174.43 175.29 176.14 176.95 177.75 178.51 179.25 179.95 180.62 181.26 181.86 182.43 182.96 183.46 183.91 184.33 184.70 185.04 185.33 185.58 185.79 185.95 186.07 186.15 186.19 186.18 186.13 186.04 185.90 185.73 185.51 185.26 184.96 184.63 184.26 183.86 183.42 182.95 182.45 181.91 181.35 180.75 180.14 179.49 178.83 178.14 177.44 176.71 175.97 175.22 174.45 173.67 172.88 172.08 171.28 170.47 169.66 168.85 168.03 167.22 166.41 165.61 164.81 164.02 163.24 162.46 161.70 160.95 160.21 159.48 158.77 158.07 157.39 156.72 156.07 155.44 154.82 154.22 153.64 153.08 152.54 152.02 151.52 151.03 150.57 150.12 149.70 149.29 148.90 148.53 148.18 147.84 147.53 147.23 146.95 146.68 146.43 146.20 145.99 145.78 145.60 145.42 145.26 145.12 144.99 144.87 144.76 144.66 144.57 144.50 144.43 144.38 144.33 144.29 144.26 144.24 144.23 144.22 144.22 144.23 144.25 144.26
124.22 124.39 124.57 124.75 124.94 125.14 125.34 125.55 125.77 126.00 126.23 126.47 126.72 126.99 127.26 127.54 127.83 128.13 128.45 128.77 129.11 129.47 129.83 130.21 130.60 131.01 131.44 131.88 132.33 132.80 133.29 133.80 134.32 134.86 135.42 135.99 136.59 137.20 137.83 138.48 139.15 139.84 140.54 141.27 142.01 142.77 143.55 144.35 145.16 145.99 146.84 147.70 148.58 149.47 150.38 151.29 152.22 153.17 154.12 155.08 156.04 157.02 158.00 158.98 159.97 160.96 161.95 162.94 163.92 164.90 165.87 166.84 167.80 168.74 169.67 170.59 171.50 172.38 173.25 174.09 174.92 175.71 176.49 177.23 177.95 178.64 179.30 179.92 180.51 181.07 181.59 182.07 182.52 182.93 183.29 183.62 183.91 184.15 184.36 184.52 184.64 184.72 184.76 184.75 184.71 184.62 184.49 184.33 184.12 183.87 183.59 183.27 182.91 182.52 182.10 181.64 181.15 180.63 180.09 179.51 178.92 178.29 177.65 176.98 176.30 175.59 174.87 174.14 173.40 172.64 171.87 171.10 170.32 169.54 168.75 167.96 167.17 166.38 165.60 164.82 164.04 163.28 162.52 161.77 161.02 160.29 159.58 158.87 158.18 157.50 156.84 156.19 155.56 154.95 154.35 153.77 153.21 152.67 152.14 151.64 151.15 150.68 150.23 149.80 149.39 148.99 148.62 148.26 147.92 147.60 147.29 147.00 146.73 146.48 146.24 146.01 145.80 145.61 145.43 145.27 145.11 144.97 144.85 144.73 144.63 144.54 144.46 144.39 144.32 144.27 144.23 144.20 144.17 144.15 144.14 144.14 144.14 144.15 144.17 144.19
124.14 124.31 124.49 124.67 124.86 125.05 125.25 125.46 125.68 125.90 126.13 126.37 126.62 126.87 127.14 127.41 127.70 128.00 128.31 128.63 128.96 129.31 129.67 130.04 130.42 130.82 131.24 131.67 132.12 132.58 133.05 133.55 134.06 134.59 135.13 135.70 136.28 136.88 137.49 138.13 138.78 139.45 140.14 140.85 141.58 142.32 143.08 143.86 144.65 145.46 146.29 147.13 147.99 148.86 149.74 150.64 151.55 152.46 153.39 154.33 155.27 156.23 157.18 158.14 159.11 160.07 161.04 162.00 162.96 163.92 164.87 165.81 166.74 167.66 168.57 169.47 170.35 171.22 172.06 172.89 173.69 174.47 175.23 175.96 176.66 177.33 177.97 178.58 179.16 179.70 180.21 180.69 181.12 181.52 181.88 182.20 182.48 182.73 182.93 183.09 183.21 183.29 183.33 183.33 183.28 183.20 183.08 182.92 182.72 182.49 182.21 181.90 181.56 181.18 180.77 180.33 179.86 179.36 178.83 178.27 177.69 177.09 176.46 175.82 175.15 174.47 173.77 173.06 172.34 171.61 170.87 170.12 169.36 168.60 167.84 167.07 166.31 165.54 164.78 164.03 163.27 162.53 161.79 161.06 160.35 159.64 158.94 158.26 157.59 156.93 156.29 155.66 155.05 154.46 153.88 153.32 152.78 152.25 151.74 151.25 150.78 150.33 149.89 149.48 149.08 148.70 148.33 147.99 147.66 147.35 147.05 146.78 146.52 146.27 146.04 145.82 145.62 145.44 145.27 145.11 144.96 144.83 144.71 144.60 144.50 144.41 144.34 144.27 144.22 144.17 144.13 144.10 144.08 144.06 144.05 144.05 144.06 144.07 144.09 144.11
124.07 124.24 124.41 124.59 124.78 124.97 125.17 125.37 125.58 125.80 126.03 126.26 126.51 126.76 127.02 127.29 127.57 127.87 128.17 128.48 128.81 129.15 129.50 129.86 130.24 130.63 131.04 131.46 131.90 132.35 132.82 133.30 133.80 134.32 134.85 135.40 135.97 136.55 137.16 137.78 138.41 139.07 139.74 140.43 141.14 141.87 142.61 143.37 144.14 144.93 145.74 146.56 147.40 148.25 149.11 149.98 150.87 151.76 152.67 153.58 154.50 155.43 156.36 157.30 158.24 159.18 160.12 161.06 162.00 162.93 163.86 164.77 165.68 166.58 167.47 168.35 169.21 170.05 170.87 171.68 172.46 173.22 173.96 174.67 175.36 176.01 176.64 177.24 177.80 178.33 178.83 179.29 179.72 180.11 180.46 180.78 181.06 181.29 181.49 181.65 181.77 181.85 181.89 181.89 181.86 181.78 181.66 181.51 181.32 181.09 180.83 180.53 180.20 179.84 179.44 179.01 178.56 178.07 177.56 177.02 176.46 175.88 175.27 174.65 174.01 173.35 172.67 171.98 171.28 170.57 169.86 169.13 168.40 167.66 166.92 166.18 165.44 164.70 163.96 163.23 162.50 161.78 161.07 160.36 159.67 158.98 158.31 157.65 157.00 156.36 155.74 155.13 154.54 153.97 153.41 152.87 152.34 151.83 151.34 150.87 150.41 149.98 149.56 149.15 148.77 148.40 148.05 147.72 147.40 147.10 146.82 146.55 146.30 146.06 145.84 145.63 145.44 145.26 145.10 144.95 144.81 144.68 144.57 144.47 144.37 144.29 144.22 144.16 144.11 144.06 144.03 144.00 143.98 143.97 143.97 143.97 143.98 143.99 144.01 144.04
124.00 124.16 124.34 124.51 124.70 124.88 125.08 125.28 125.49 125.70 125.93 126.16 126.40 126.65 126.90 127.17 127.45 127.73 128.03 128.34 128.66 128.99 129.33 129.69 130.06 130.45 130.84 131.25 131.68 132.12 132.58 133.05 133.54 134.04 134.57 135.10 135.66 136.23 136.82 137.42 138.04 138.68 139.34 140.01 140.71 141.41 142.14 142.88 143.63 144.40 145.19 145.99 146.81 147.63 148.47 149.33 150.19 151.06 151.94 152.83 153.73 154.64 155.55 156.46 157.37 158.29 159.21 160.12 161.03 161.94 162.85 163.74 164.63 165.51 166.37 167.22 168.06 168.88 169.69 170.47 171.24 171.98 172.70 173.39 174.06 174.70 175.31 175.89 176.45 176.97 177.45 177.90 178.32 178.70 179.05 179.36 179.63 179.86 180.06 180.22 180.34 180.42 180.46 180.46 180.43 180.36 180.25 180.10 179.92 179.70 179.45 179.17 178.85 178.49 178.11 177.70 177.26 176.79 176.30 175.78 175.24 174.67 174.09 173.48 172.86 172.22 171.57 170.91 170.23 169.54 168.85 168.14 167.43 166.72 166.01 165.29 164.57 163.86 163.15 162.44 161.73 161.03 160.34 159.66 158.99 158.33 157.67 157.03 156.41 155.79 155.19 154.60 154.03 153.48 152.94 152.41 151.91 151.41 150.94 150.48 150.04 149.62 149.22 148.83 148.46 148.10 147.77 147.44 147.14 146.85 146.58 146.32 146.08 145.85 145.64 145.45 145.26 145.09 144.93 144.79 144.66 144.54 144.43 144.33 144.25 144.17 144.10 144.05 144.00 143.96 143.93 143.90 143.89 143.88 143.88 143.88 143.90 143.91 143.94 143.96
123.92 124.09 124.26 124.43 124.61 124.80 124.99 125.19 125.40 125.61 125.83 126.05 126.29 126.53 126.79 127.05 127.32 127.60 127.89 128.19 128.51 128.83 129.17 129.52 129.88 130.26 130.64 131.05 131.46 131.90 132.34 132.80 133.28 133.77 134.28 134.81 135.35 135.90 136.48 137.07 137.68 138.30 138.94 139.60 140.27 140.96 141.67 142.39 143.12 143.88 144.64 145.42 146.21 147.02 147.84 148.67 149.51 150.36 151.22 152.09 152.96 153.84 154.73 155.62 156.51 157.40 158.29 159.18 160.07 160.96 161.84 162.71 163.57 164.43 165.27 166.10 166.92 167.72 168.50 169.27 170.01 170.73 171.44 172.11 172.76 173.39 173.99 174.55 175.09 175.60 176.07 176.51 176.92 177.30 177.64 177.94 178.20 178.43 178.63 178.78 178.90 178.98 179.03 179.03 179.00 178.94 178.84 178.70 178.52 178.31 178.07 177.80 177.49 177.15 176.79 176.39 175.96 175.51 175.04 174.53 174.01 173.47 172.90 172.32 171.72 171.10 170.47 169.83 169.17 168.51 167.84 167.16 166.47 165.78 165.09 164.40 163.71 163.02 162.33 161.64 160.96 160.29 159.62 158.96 158.31 157.67 157.04 156.42 155.81 155.22 154.64 154.08 153.52 152.99 152.47 151.96 151.47 151.00 150.54 150.10 149.68 149.27 148.88 148.50 148.15 147.81 147.48 147.17 146.88 146.60 146.34 146.10 145.86 145.65 145.44 145.26 145.08 144.92 144.77 144.63 144.51 144.39 144.29 144.20 144.12 144.05 143.99 143.93 143.89 143.85 143.83 143.81 143.80 143.79 143.79 143.80 143.81 143.83 143.86 143.89
123.85 124.01 124.18 124.35 124.53 124.72 124.90 125.10 125.30 125.51 125.73 125.95 126.18 126.42 126.67 126.92 127.19 127.47 127.75 128.05 128.36 128.67 129.00 129.35 129.70 130.07 130.45 130.84 131.25 131.67 132.11 132.56 133.02 133.50 134.00 134.51 135.04 135.58 136.14 136.72 137.31 137.92 138.54 139.18 139.84 140.51 141.20 141.90 142.62 143.35 144.09 144.85 145.63 146.41 147.21 148.02 148.83 149.66 150.50 151.34 152.19 153.05 153.91 154.78 155.65 156.51 157.38 158.25 159.11 159.98 160.83 161.68 162.52 163.35 164.17 164.98 165.78 166.56 167.32 168.06 168.79 169.49 170.18 170.84 171.47 172.08 172.66 173.22 173.74 174.24 174.70 175.13 175.53 175.89 176.23 176.52 176.78 177.01 177.20 177.36 177.47 177.56 177.60 177.61 177.58 177.52 177.43 177.29 177.13 176.93 176.70 176.44 176.14 175.82 175.46 175.08 174.67 174.24 173.78 173.29 172.79 172.26 171.72 171.16 170.58 169.98 169.37 168.75 168.12 167.48 166.83 166.18 165.51 164.85 164.18 163.51 162.85 162.18 161.51 160.85 160.19 159.54 158.90 158.26 157.63 157.02 156.41 155.81 155.23 154.65 154.09 153.55 153.02 152.50 152.00 151.51 151.04 150.58 150.14 149.72 149.31 148.92 148.54 148.18 147.84 147.51 147.20 146.90 146.62 146.36 146.11 145.87 145.65 145.44 145.25 145.07 144.90 144.75 144.60 144.47 144.36 144.25 144.15 144.07 143.99 143.92 143.87 143.82 143.78 143.75 143.73 143.71 143.70 143.70 143.70 143.72 143.73 143.75 143.78 143.81
123.78 123.94 124.10 124.27 124.45 124.63 124.82 125.01 125.21 125.41 125.63 125.85 126.07 126.31 126.55 126.80 127.06 127.33 127.61 127.90 128.20 128.52 128.84 129.17 129.52 129.88 130.25 130.63 131.03 131.44 131.87 132.31 132.76 133.23 133.72 134.22 134.73 135.26 135.81 136.37 136.94 137.54 138.14 138.77 139.41 140.06 140.73 141.41 142.11 142.82 143.55 144.29 145.04 145.80 146.58 147.37 148.16 148.97 149.78 150.60 151.43 152.26 153.10 153.94 154.79 155.63 156.48 157.32 158.16 159.00 159.83 160.66 161.47 162.28 163.08 163.87 164.64 165.40 166.14 166.87 167.57 168.26 168.92 169.57 170.18 170.78 171.34 171.88 172.40 172.88 173.33 173.75 174.14 174.50 174.82 175.11 175.37 175.59 175.78 175.93 176.05 176.13 176.18 176.19 176.17 176.11 176.02 175.90 175.74 175.55 175.33 175.08 174.80 174.48 174.14 173.78 173.38 172.97 172.52 172.06 171.57 171.07 170.54 170.00 169.44 168.87 168.28 167.68 167.07 166.46 165.83 165.20 164.56 163.92 163.28 162.63 161.99 161.34 160.70 160.06 159.43 158.80 158.18 157.57 156.96 156.37 155.78 155.20 154.64 154.09 153.55 153.02 152.51 152.01 151.53 151.06 150.61 150.17 149.74 149.34 148.94 148.57 148.21 147.86 147.53 147.22 146.92 146.63 146.36 146.11 145.87 145.64 145.43 145.23 145.05 144.88 144.72 144.57 144.44 144.32 144.20 144.10 144.01 143.93 143.86 143.80 143.75 143.71 143.67 143.65 143.63 143.61 143.61 143.61 143.62 143.63 143.65 143.67 143.70 143.74
123.70 123.86 124.03 124.19 124.37 124.55 124.73 124.92 125.12 125.32 125.53 125.74 125.96 126.20 126.43 126.68 126.94 127.20 127.48 127.76 128.05 128.36 128.68 129.00 129.34 129.69 130.05 130.43 130.82 131.22 131.63 132.06 132.51 132.96 133.44 133.92 134.42 134.94 135.47 136.02 136.58 137.16 137.75 138.35 138.98 139.61 140.26 140.93 141.61 142.30 143.01 143.73 144.46 145.20 145.95 146.72 147.49 148.28 149.07 149.86 150.67 151.48 152.29 153.11 153.93 154.75 155.57 156.39 157.21 158.03 158.84 159.64 160.43 161.22 162.00 162.76 163.51 164.25 164.97 165.68 166.36 167.03 167.68 168.30 168.91 169.48 170.03 170.56 171.06 171.53 171.97 172.38 172.76 173.11 173.43 173.71 173.96 174.18 174.37 174.52 174.64 174.72 174.77 174.78 174.76 174.71 174.63 174.51 174.36 174.18 173.97 173.73 173.46 173.16 172.83 172.48 172.11 171.70 171.28 170.83 170.36 169.88 169.37 168.85 168.31 167.76 167.20 166.62 166.03 165.44 164.84 164.23 163.61 162.99 162.37 161.75 161.13 160.51 159.89 159.28 158.67 158.06 157.47 156.88 156.29 155.72 155.15 154.60 154.06 153.53 153.01 152.50 152.01 151.53 151.06 150.61 150.18 149.75 149.35 148.96 148.58 148.22 147.87 147.54 147.22 146.92 146.64 146.36 146.11 145.86 145.63 145.42 145.22 145.03 144.85 144.69 144.54 144.40 144.28 144.16 144.05 143.96 143.88 143.80 143.74 143.68 143.63 143.60 143.56 143.54 143.53 143.52 143.52 143.52 143.53 143.55 143.57 143.59 143.63 143.66
123.63 123.79 123.95 124.12 124.29 124.46 124.64 124.83 125.02 125.22 125.43 125.64 125.86 126.08 126.32 126.56 126.81 127.07 127.34 127.62 127.91 128.20 128.51 128.83 129.16 129.51 129.86 130.23 130.60 131.00 131.40 131.82 132.25 132.70 133.16 133.63 134.12 134.62 135.14 135.67 136.22 136.78 137.35 137.95 138.55 139.17 139.80 140.45 141.11 141.78 142.47 143.17 143.88 144.60 145.33 146.08 146.83 147.59 148.36 149.13 149.91 150.70 151.49 152.29 153.08 153.88 154.68 155.48 156.27 157.06 157.85 158.63 159.40 160.16 160.92 161.66 162.39 163.11 163.81 164.50 165.16 165.81 166.44 167.05 167.64 168.20 168.73 169.25 169.73 170.19 170.62 171.02 171.39 171.73 172.04 172.32 172.57 172.78 172.97 173.12 173.23 173.32 173.37 173.38 173.37 173.32 173.24 173.13 172.99 172.82 172.62 172.39 172.13 171.85 171.53 171.20 170.84 170.45 170.04 169.61 169.16 168.70 168.21 167.71 167.19 166.66 166.12 165.56 165.00 164.43 163.85 163.26 162.67 162.08 161.48 160.88 160.28 159.69 159.09 158.50 157.91 157.33 156.76 156.19 155.63 155.08 154.53 154.00 153.48 152.97 152.47 151.98 151.51 151.05 150.60 150.17 149.75 149.35 148.95 148.58 148.22 147.87 147.54 147.22 146.92 146.63 146.36 146.10 145.85 145.62 145.40 145.20 145.00 144.83 144.66 144.51 144.36 144.23 144.11 144.00 143.91 143.82 143.74 143.67 143.61 143.56 143.52 143.48 143.46 143.44 143.43 143.42 143.42 143.43 143.44 143.46 143.49 143.52 143.55 143.59
123.56 123.71 123.87 124.04 124.21 124.38 124.56 124.74 124.93 125.13 125.33 125.54 125.75 125.97 126.20 126.44 126.69 126.94 127.20 127.48 127.76 128.05 128.35 128.66 128.99 129.32 129.67 130.02 130.39 130.78 131.17 131.58 132.00 132.43 132.88 133.34 133.82 134.31 134.81 135.33 135.86 136.40 136.96 137.54 138.13 138.73 139.34 139.97 140.61 141.27 141.94 142.61 143.30 144.01 144.72 145.44 146.17 146.91 147.65 148.41 149.17 149.93 150.70 151.47 152.24 153.02 153.79 154.57 155.34 156.11 156.87 157.63 158.38 159.12 159.85 160.57 161.28 161.98 162.66 163.33 163.97 164.61 165.22 165.81 166.38 166.92 167.45 167.94 168.42 168.86 169.28 169.67 170.04 170.37 170.67 170.94 171.19 171.40 171.58 171.72 171.84 171.92 171.98 172.00 171.99 171.94 171.87 171.77 171.64 171.47 171.28 171.06 170.82 170.54 170.25 169.92 169.58 169.21 168.82 168.41 167.97 167.53 167.06 166.58 166.08 165.57 165.05 164.52 163.98 163.43 162.87 162.31 161.74 161.17 160.59 160.02 159.44 158.87 158.30 157.73 157.17 156.61 156.05 155.51 154.97 154.44 153.92 153.41 152.90 152.41 151.94 151.47 151.01 150.57 150.14 149.73 149.33 148.94 148.56 148.20 147.86 147.53 147.21 146.91 146.62 146.34 146.08 145.83 145.60 145.38 145.17 144.98 144.79 144.62 144.47 144.32 144.19 144.06 143.95 143.85 143.76 143.68 143.60 143.54 143.49 143.44 143.40 143.37 143.35 143.34 143.33 143.33 143.33 143.34 143.36 143.38 143.41 143.44 143.47 143.51
123.48 123.64 123.80 123.96 124.12 124.30 124.47 124.65 124.84 125.03 125.23 125.43 125.64 125.86 126.09 126.32 126.56 126.81 127.07 127.33 127.61 127.89 128.19 128.49 128.81 129.14 129.47 129.82 130.18 130.56 130.94 131.34 131.75 132.17 132.61 133.05 133.52 133.99 134.48 134.99 135.50 136.03 136.58 137.14 137.71 138.29 138.89 139.50 140.12 140.76 141.41 142.07 142.74 143.42 144.11 144.81 145.52 146.23 146.96 147.69 148.43 149.17 149.91 150.66 151.41 152.16 152.91 153.67 154.41 155.16 155.90 156.63 157.36 158.08 158.79 159.49 160.18 160.86 161.52 162.17 162.80 163.41 164.00 164.58 165.13 165.66 166.17 166.66 167.12 167.55 167.96 168.34 168.69 169.02 169.31 169.58 169.82 170.02 170.20 170.35 170.46 170.55 170.60 170.62 170.62 170.58 170.51 170.42 170.29 170.14 169.96 169.75 169.52 169.26 168.97 168.66 168.33 167.98 167.60 167.21 166.80 166.37 165.92 165.46 164.98 164.49 163.99 163.48 162.96 162.43 161.90 161.36 160.81 160.27 159.71 159.16 158.61 158.06 157.51 156.97 156.43 155.89 155.36 154.83 154.32 153.81 153.31 152.82 152.34 151.87 151.41 150.96 150.52 150.10 149.69 149.29 148.91 148.54 148.18 147.83 147.50 147.19 146.88 146.59 146.32 146.05 145.81 145.57 145.35 145.14 144.94 144.76 144.58 144.42 144.27 144.14 144.01 143.89 143.79 143.69 143.61 143.53 143.47 143.41 143.36 143.32 143.29 143.26 143.24 143.23 143.23 143.23 143.24 143.25 143.27 143.30 143.32 143.36 143.40 143.44
123.41 123.56 123.72 123.88 124.04 124.21 124.39 124.56 124.75 124.94 125.13 125.33 125.54 125.75 125.97 126.20 126.44 126.68 126.93 127.19 127.46 127.74 128.03 128.33 128.64 128.95 129.28 129.62 129.97 130.34 130.71 131.10 131.50 131.91 132.33 132.77 133.22 133.68 134.16 134.65 135.15 135.67 136.20 136.74 137.29 137.86 138.44 139.03 139.64 140.26 140.88 141.52 142.17 142.83 143.50 144.18 144.87 145.57 146.27 146.98 147.69 148.41 149.13 149.86 150.59 151.32 152.05 152.77 153.50 154.22 154.94 155.65 156.36 157.06 157.75 158.43 159.09 159.75 160.39 161.02 161.63 162.23 162.80 163.36 163.90 164.41 164.91 165.38 165.83 166.25 166.65 167.02 167.36 167.68 167.97 168.23 168.46 168.67 168.84 168.99 169.10 169.19 169.24 169.27 169.26 169.23 169.17 169.08 168.96 168.82 168.65 168.45 168.23 167.98 167.71 167.41 167.10 166.76 166.40 166.03 165.63 165.22 164.79 164.35 163.89 163.43 162.95 162.46 161.96 161.45 160.94 160.42 159.90 159.37 158.85 158.32 157.79 157.26 156.73 156.21 155.69 155.18 154.67 154.17 153.67 153.18 152.70 152.23 151.77 151.32 150.88 150.46 150.04 149.63 149.24 148.86 148.49 148.14 147.80 147.47 147.15 146.85 146.56 146.28 146.02 145.77 145.53 145.31 145.10 144.90 144.71 144.54 144.37 144.22 144.08 143.95 143.84 143.73 143.63 143.54 143.46 143.39 143.33 143.28 143.24 143.20 143.17 143.15 143.14 143.13 143.13 143.14 143.15 143.16 143.19 143.21 143.24 143.28 143.32 143.36
123.34 123.49 123.64 123.80 123.96 124.13 124.30 124.48 124.66 124.84 125.03 125.23 125.43 125.64 125.86 126.08 126.32 126.55 126.80 127.05 127.32 127.59 127.87 128.16 128.46 128.77 129.09 129.43 129.77 130.12 130.49 130.86 131.25 131.65 132.07 132.49 132.93 133.38 133.84 134.32 134.80 135.30 135.82 136.34 136.88 137.43 138.00 138.57 139.16 139.76 140.37 140.99 141.62 142.26 142.91 143.57 144.23 144.91 145.59 146.28 146.97 147.67 148.37 149.07 149.78 150.48 151.19 151.89 152.60 153.30 153.99 154.68 155.37 156.05 156.71 157.37 158.02 158.66 159.28 159.89 160.48 161.06 161.62 162.16 162.68 163.18 163.66 164.12 164.56 164.97 165.36 165.72 166.05 166.36 166.64 166.90 167.13 167.33 167.50 167.64 167.76 167.84 167.90 167.93 167.93 167.90 167.84 167.76 167.65 167.52 167.36 167.17 166.96 166.72 166.46 166.18 165.88 165.56 165.22 164.86 164.48 164.09 163.68 163.26 162.82 162.37 161.91 161.45 160.97 160.48 159.99 159.50 159.00 158.49 157.99 157.48 156.98 156.47 155.97 155.47 154.97 154.48 153.99 153.51 153.03 152.57 152.11 151.66 151.22 150.79 150.37 149.96 149.56 149.17 148.80 148.43 148.08 147.74 147.42 147.10 146.80 146.52 146.24 145.98 145.73 145.49 145.27 145.05 144.85 144.66 144.49 144.32 144.17 144.03 143.89 143.77 143.66 143.56 143.47 143.39 143.32 143.25 143.20 143.15 143.12 143.08 143.06 143.04 143.03 143.03 143.03 143.04 143.06 143.08 143.10 143.13 143.16 143.20 143.24 143.29
123.27 123.42 123.57 123.72 123.88 124.05 124.22 124.39 124.57 124.75 124.94 125.13 125.33 125.54 125.75 125.97 126.19 126.43 126.67 126.92 127.17 127.44 127.72 128.00 128.29 128.60 128.91 129.23 129.57 129.91 130.26 130.63 131.01 131.40 131.80 132.21 132.64 133.07 133.52 133.99 134.46 134.95 135.44 135.96 136.48 137.01 137.56 138.12 138.69 139.27 139.86 140.46 141.07 141.69 142.32 142.96 143.60 144.26 144.92 145.58 146.25 146.93 147.61 148.29 148.97 149.66 150.34 151.03 151.71 152.39 153.06 153.73 154.39 155.05 155.70 156.33 156.96 157.58 158.18 158.77 159.35 159.91 160.45 160.98 161.48 161.97 162.44 162.88 163.30 163.70 164.08 164.43 164.76 165.06 165.34 165.59 165.81 166.01 166.17 166.32 166.43 166.52 166.57 166.61 166.61 166.59 166.54 166.46 166.36 166.23 166.08 165.90 165.70 165.48 165.24 164.97 164.68 164.38 164.05 163.71 163.35 162.97 162.58 162.18 161.76 161.33 160.90 160.45 159.99 159.53 159.06 158.59 158.11 157.63 157.14 156.66 156.17 155.69 155.21 154.73 154.25 153.78 153.32 152.86 152.40 151.96 151.52 151.09 150.67 150.26 149.86 149.47 149.09 148.72 148.36 148.01 147.68 147.36 147.04 146.75 146.46 146.19 145.92 145.67 145.44 145.21 145.00 144.80 144.61 144.43 144.26 144.11 143.97 143.83 143.71 143.60 143.49 143.40 143.32 143.24 143.17 143.12 143.07 143.03 142.99 142.97 142.95 142.94 142.93 142.93 142.94 142.95 142.97 142.99 143.02 143.05 143.08 143.12 143.17 143.22
123.20 123.34 123.49 123.65 123.80 123.97 124.13 124.30 124.48 124.66 124.84 125.03 125.23 125.43 125.64 125.85 126.07 126.30 126.54 126.78 127.03 127.29 127.56 127.84 128.12 128.42 128.72 129.04 129.36 129.70 130.04 130.40 130.77 131.15 131.54 131.94 132.35 132.78 133.21 133.66 134.12 134.59 135.08 135.57 136.08 136.60 137.13 137.67 138.22 138.78 139.35 139.94 140.53 141.13 141.74 142.36 142.98 143.62 144.26 144.90 145.55 146.20 146.86 147.52 148.18 148.85 149.51 150.17 150.83 151.49 152.14 152.79 153.43 154.07 154.69 155.31 155.92 156.52 157.10 157.67 158.23 158.77 159.30 159.81 160.30 160.77 161.23 161.66 162.07 162.46 162.82 163.17 163.49 163.78 164.05 164.29 164.51 164.70 164.87 165.01 165.12 165.21 165.27 165.30 165.31 165.29 165.25 165.18 165.09 164.97 164.82 164.66 164.47 164.26 164.03 163.77 163.50 163.21 162.90 162.57 162.23 161.87 161.50 161.12 160.72 160.31 159.89 159.47 159.03 158.59 158.14 157.69 157.23 156.77 156.31 155.85 155.38 154.92 154.46 154.00 153.55 153.10 152.66 152.22 151.78 151.36 150.94 150.53 150.13 149.74 149.35 148.98 148.62 148.27 147.93 147.60 147.28 146.97 146.68 146.39 146.12 145.86 145.61 145.38 145.15 144.94 144.74 144.55 144.37 144.20 144.04 143.90 143.76 143.64 143.52 143.42 143.32 143.24 143.16 143.09 143.03 142.98 142.94 142.90 142.87 142.85 142.84 142.83 142.83 142.83 142.84 142.86 142.88 142.90 142.93 142.97 143.00 143.05 143.09 143.14
123.13 123.27 123.42 123.57 123.73 123.89 124.05 124.22 124.39 124.56 124.75 124.93 125.12 125.32 125.53 125.74 125.95 126.18 126.41 126.65 126.89 127.15 127.41 127.68 127.96 128.24 128.54 128.85 129.16 129.49 129.83 130.17 130.53 130.90 131.28 131.67 132.07 132.48 132.91 133.34 133.79 134.24 134.71 135.19 135.69 136.19 136.70 137.23 137.76 138.30 138.86 139.42 140.00 140.58 141.17 141.77 142.37 142.99 143.60 144.23 144.86 145.49 146.13 146.76 147.41 148.05 148.69 149.33 149.97 150.60 151.23 151.86 152.48 153.10 153.71 154.30 154.89 155.47 156.04 156.59 157.13 157.66 158.17 158.66 159.14 159.60 160.04 160.46 160.85 161.23 161.59 161.92 162.23 162.52 162.78 163.02 163.23 163.42 163.59 163.72 163.84 163.92 163.99 164.02 164.03 164.02 163.98 163.92 163.83 163.72 163.59 163.43 163.25 163.06 162.84 162.60 162.34 162.06 161.77 161.46 161.13 160.79 160.44 160.07 159.69 159.30 158.91 158.50 158.08 157.66 157.23 156.80 156.37 155.93 155.49 155.05 154.61 154.16 153.73 153.29 152.86 152.43 152.00 151.59 151.17 150.77 150.37 149.98 149.60 149.22 148.86 148.50 148.16 147.83 147.50 147.19 146.89 146.59 146.31 146.04 145.79 145.54 145.31 145.08 144.87 144.67 144.48 144.30 144.13 143.97 143.83 143.69 143.56 143.45 143.34 143.24 143.16 143.08 143.01 142.95 142.89 142.85 142.81 142.78 142.75 142.74 142.73 142.72 142.72 142.73 142.75 142.76 142.79 142.82 142.85 142.89 142.93 142.97 143.02 143.07
123.06 123.20 123.35 123.50 123.65 123.80 123.97 124.13 124.30 124.47 124.65 124.83 125.02 125.22 125.42 125.62 125.84 126.05 126.28 126.51 126.75 127.00 127.26 127.52 127.79 128.07 128.36 128.66 128.97 129.29 129.61 129.95 130.30 130.66 131.02 131.40 131.79 132.19 132.60 133.02 133.46 133.90 134.36 134.82 135.30 135.78 136.28 136.79 137.31 137.84 138.37 138.92 139.47 140.04 140.61 141.19 141.77 142.37 142.96 143.57 144.18 144.79 145.40 146.02 146.64 147.26 147.88 148.50 149.12 149.73 150.34 150.95 151.55 152.15 152.74 153.31 153.88 154.44 154.99 155.53 156.05 156.56 157.06 157.53 158.00 158.44 158.87 159.27 159.66 160.03 160.37 160.70 161.00 161.28 161.54 161.77 161.98 162.16 162.33 162.46 162.57 162.66 162.73 162.76 162.78 162.77 162.74 162.68 162.60 162.50 162.37 162.23 162.06 161.87 161.67 161.44 161.20 160.93 160.66 160.36 160.05 159.73 159.39 159.04 158.68 158.31 157.94 157.55 157.15 156.75 156.34 155.93 155.52 155.10 154.68 154.26 153.84 153.42 153.00 152.59 152.18 151.77 151.36 150.97 150.57 150.19 149.81 149.44 149.07 148.72 148.37 148.04 147.71 147.39 147.08 146.78 146.50 146.22 145.96 145.70 145.46 145.22 145.00 144.79 144.59 144.40 144.22 144.06 143.90 143.75 143.61 143.49 143.37 143.26 143.16 143.07 142.99 142.92 142.86 142.80 142.75 142.71 142.68 142.65 142.64 142.62 142.62 142.62 142.62 142.63 142.65 142.67 142.70 142.73 142.77 142.80 142.85 142.90 142.95 143.00
122.99 123.13 123.27 123.42 123.57 123.72 123.88 124.04 124.21 124.38 124.56 124.74 124.92 125.11 125.31 125.51 125.72 125.93 126.15 126.38 126.62 126.86 127.11 127.36 127.63 127.90 128.18 128.48 128.78 129.08 129.40 129.73 130.07 130.42 130.77 131.14 131.52 131.91 132.31 132.71 133.13 133.56 134.00 134.46 134.92 135.39 135.87 136.36 136.86 137.37 137.89 138.42 138.96 139.50 140.06 140.62 141.18 141.76 142.34 142.92 143.51 144.10 144.69 145.29 145.89 146.49 147.09 147.69 148.29 148.88 149.47 150.06 150.64 151.21 151.78 152.34 152.89 153.44 153.97 154.49 154.99 155.49 155.96 156.43 156.87 157.31 157.72 158.11 158.49 158.85 159.18 159.50 159.79 160.06 160.32 160.54 160.75 160.93 161.09 161.22 161.34 161.42 161.49 161.53 161.55 161.54 161.52 161.46 161.39 161.30 161.18 161.05 160.89 160.71 160.52 160.31 160.07 159.83 159.56 159.29 158.99 158.69 158.37 158.04 157.69 157.34 156.98 156.61 156.24 155.86 155.47 155.08 154.69 154.29 153.89 153.49 153.09 152.69 152.29 151.90 151.51 151.12 150.74 150.36 149.98 149.62 149.26 148.90 148.56 148.22 147.89 147.57 147.26 146.96 146.67 146.39 146.12 145.86 145.60 145.36 145.13 144.91 144.71 144.51 144.32 144.14 143.97 143.82 143.67 143.53 143.40 143.28 143.18 143.08 142.98 142.90 142.83 142.76 142.71 142.66 142.62 142.58 142.55 142.53 142.52 142.51 142.51 142.51 142.52 142.54 142.56 142.58 142.61 142.64 142.68 142.72 142.77 142.82 142.87 142.93
